188.89,232.17,276.33,236.45,213.54,200.89,252.00,215.44,155.91,152.61,159.57,110.56,82.13,118.42,154.69,66.76,51.28,66.95,114.37,183.15,180.73,186.08,228.76,256.03,214.35,187.18,163.57,163.22,197.47,222.41,254.84,244.34,229.02,245.52,275.49,207.57,192.44,241.00,325.66,263.85,195.21,129.29,130.77,186.72,196.59,222.90,218.81,189.15,156.40,208.35,209.72,253.37,298.72,243.05,173.46,118.88,146.99,172.41,182.42,150.84,118.13,126.13,197.01,211.75,213.40,214.16,245.14,277.77,301.24,331.04,402.92,372.84,402.06,521.62,502.94,401.66,509.92,556.60,532.54,440.51,364.63,457.27,402.26,399.35,369.47,413.23,416.63,466.87,492.09,589.86,476.66,482.81,429.25,428.59,455.86,485.33,578.59,589.03,655.60,729.48,830.75,976.42,1065.31,1081.97,1240.72,1296.37,1110.05,947.79,790.02,827.60,857.18,885.64,955.35,1025.20,1021.20,1073.44,1225.12,1216.68,1324.62,1570.92,1795.44,1735.18,1681.64,1627.47,1683.04,1690.24,1540.33,1277.01,1062.60,1125.52,1227.36,1293.89,1078.38,1000.97,956.26,968.09,911.50,718.97,916.93,1058.82,965.10,889.16,832.21,965.74,959.34,1003.16,920.78,860.11,745.17,659.81,574.61,521.57,540.28,519.53,452.95,467.86,542.46,652.53,702.01,569.32,483.22,410.17,384.74,362.30,340.95,326.93,340.65,336.02,294.04,278.24,270.32,280.25,281.48,276.95,270.87,257.56,251.94,248.44,243.00,235.70,230.43,226.15,220.44,216.04,210.34,205.73,200.27,195.19,190.97,186.06,180.61,175.93,172.13,167.92,164.34,155.82,144.38,144.52,154.16,167.09,169.24,166.05,157.29,152.64,151.97,154.96,154.72,153.61,152.34,150.93,149.11,147.68,145.69,144.74,145.74,145.69,149.53,149.85,152.84,153.39,154.78,154.31,155.18,165.89,144.65,130.56,125.77,109.12,103.38,108.12,155.18,184.13,157.94,113.99,137.30,147.75,155.03,169.78,205.27,273.35,269.13,219.69,209.12,236.38,166.94,127.61,103.84,74.73,60.22,42.34,40.02,38.85,39.35,47.85,58.39,55.37
186.83,201.91,240.32,205.36,167.87,232.34,208.94,218.26,161.50,125.39,148.84,111.25,78.06,97.27,143.03,69.22,53.94,61.25,108.10,145.28,161.89,199.24,231.89,220.12,208.38,145.26,141.18,209.89,208.05,233.98,273.42,285.90,270.52,268.06,262.75,208.89,166.91,201.24,288.68,224.42,160.12,110.11,144.03,214.83,217.18,218.38,184.33,120.90,98.59,115.26,142.94,182.62,224.47,178.66,115.36,126.08,152.62,144.46,145.99,124.83,114.52,141.68,160.23,195.83,252.25,225.22,273.11,282.54,281.25,296.21,320.87,350.14,432.63,527.98,521.17,367.17,420.04,468.07,485.96,376.36,338.82,331.52,351.74,375.59,428.06,392.37,408.21,397.62,395.95,417.28,454.79,435.07,495.90,572.09,586.85,459.44,495.42,525.38,606.52,712.68,864.68,865.07,956.79,1031.40,1074.47,1300.76,1212.87,1018.63,997.74,967.84,945.46,1063.69,1109.96,1229.13,1245.55,1202.64,1416.33,1472.49,1403.75,1508.84,1668.61,1611.67,1561.94,1485.00,1584.06,1592.65,1647.72,1405.64,1156.75,1175.16,1414.92,1378.94,1127.72,1164.20,1154.91,1149.96,982.04,750.27,858.78,1049.17,1147.11,955.22,918.89,1135.12,1166.85,1085.09,913.48,755.75,634.67,586.81,624.05,602.16,650.75,615.43,509.64,463.57,432.41,454.48,512.12,588.03,534.98,476.76,478.47,387.16,368.99,400.01,414.00,336.54,292.03,292.94,275.52,280.28,287.43,283.46,270.30,261.81,256.61,250.92,243.53,238.40,233.87,228.36,222.85,217.00,211.76,207.46,201.88,197.23,192.25,186.48,181.17,176.68,173.01,167.93,158.42,148.97,147.00,152.72,170.81,170.92,170.29,166.75,157.52,155.52,155.14,157.32,156.88,155.33,154.23,152.52,150.96,150.17,148.99,146.70,147.32,148.67,150.60,152.23,152.61,153.92,151.09,149.17,145.59,138.60,134.66,139.05,121.66,109.93,105.47,124.33,187.15,182.46,153.84,115.31,138.07,145.29,155.75,171.72,222.94,252.19,176.92,186.95,246.61,200.65,120.27,133.75,109.82,57.61,45.02,46.40,48.96,41.30,49.33,61.45,59.86,64.69
203.16,227.47,234.90,209.47,163.08,221.66,178.94,224.69,195.40,144.35,127.38,111.73,113.72,74.47,132.53,88.21,47.43,54.19,67.20,119.24,132.78,181.40,177.17,190.69,133.22,139.50,179.74,170.06,218.69,244.69,273.02,308.53,322.37,254.04,209.61,228.79,160.11,168.88,264.59,212.94,147.44,102.52,155.93,224.37,203.51,173.80,142.11,88.07,88.10,88.73,108.80,135.29,123.82,105.79,100.03,103.39,109.20,110.54,110.75,123.21,138.12,177.63,188.77,189.67,245.90,270.79,278.16,327.45,312.54,276.06,294.73,338.80,402.50,415.09,428.90,394.75,336.68,469.65,484.75,305.11,317.63,409.45,550.56,581.02,609.57,598.12,642.74,615.92,636.11,653.27,668.11,501.74,568.94,719.71,658.31,502.42,550.14,612.80,696.21,808.71,933.40,770.31,832.63,851.77,988.78,1210.32,1344.50,1215.53,1240.40,1212.15,1133.24,1193.92,1340.87,1435.01,1505.62,1387.13,1510.13,1659.28,1583.14,1664.01,1718.15,1581.10,1454.75,1356.40,1424.78,1457.47,1649.10,1422.04,1260.23,1318.56,1493.41,1424.75,1246.71,1310.55,1361.31,1274.59,1011.85,771.38,908.73,1098.60,1225.34,1102.41,1061.09,1246.63,1117.88,933.16,815.63,724.52,619.64,769.61,799.18,687.64,777.34,711.31,535.62,526.35,497.56,455.29,406.93,442.08,541.87,590.13,538.00,412.72,413.06,460.23,379.55,335.99,313.82,287.35,279.71,282.92,297.43,283.73,272.36,266.21,258.21,251.19,246.74,241.95,236.06,230.10,224.45,219.18,213.82,208.69,203.74,198.47,192.95,187.77,182.44,177.51,173.75,165.43,151.77,147.72,155.94,172.58,175.51,174.49,172.82,168.21,159.68,158.23,158.70,160.26,158.72,157.14,155.41,154.20,154.01,153.27,150.95,148.48,148.34,149.48,152.69,154.48,154.15,152.94,147.71,139.81,134.62,135.41,135.73,127.90,116.05,109.31,109.40,151.03,188.38,177.62,145.02,125.34,143.13,150.92,157.36,170.73,203.54,175.54,129.80,179.52,170.77,165.44,116.62,100.38,80.35,47.64,51.41,67.04,67.02,43.90,56.79,70.42,64.92,72.24
195.13,211.13,237.15,193.58,157.47,184.13,184.31,209.83,196.02,201.70,159.59,137.96,115.77,69.88,117.43,100.87,50.80,49.13,79.10,137.18,170.37,160.26,182.97,109.65,147.48,199.25,219.92,193.88,191.70,214.98,231.92,272.35,321.71,304.72,209.31,171.33,146.17,156.29,235.44,203.14,117.95,103.84,176.14,194.62,150.90,121.25,97.66,81.17,84.60,87.70,87.08,90.00,104.70,132.72,135.75,131.35,182.84,169.46,141.52,186.13,177.98,210.80,215.14,189.86,216.96,250.57,282.17,322.30,277.68,252.13,285.65,313.91,315.31,314.06,310.43,297.49,364.91,476.59,364.85,388.70,526.91,556.69,699.40,791.95,792.96,821.57,855.91,860.40,870.34,862.56,817.00,547.78,601.15,788.51,648.48,553.39,539.61,707.34,716.41,752.41,818.51,725.74,830.18,925.75,1065.75,1270.55,1431.76,1350.84,1194.00,1137.18,1181.11,1301.43,1312.28,1430.97,1462.56,1499.84,1684.97,1711.83,1741.90,1871.18,1813.61,1569.74,1408.39,1319.66,1266.21,1421.99,1644.28,1571.91,1508.25,1514.02,1658.39,1590.11,1446.41,1404.46,1336.89,1168.44,923.45,783.41,940.67,1106.06,1292.33,1311.41,1285.80,1259.83,1129.65,1027.11,875.42,663.04,698.59,879.68,887.49,830.24,920.76,737.75,588.64,644.14,664.31,617.81,472.90,421.99,427.88,520.81,528.60,500.75,482.52,395.98,334.38,313.63,299.82,296.10,285.09,315.98,302.03,284.47,274.70,266.89,259.53,254.27,249.06,243.54,237.42,232.46,226.60,220.38,214.75,208.95,204.01,199.56,194.38,189.13,183.68,179.13,175.54,162.21,151.42,152.85,177.53,178.53,179.82,177.70,176.35,170.19,162.54,162.15,163.49,163.34,161.88,160.01,158.05,156.84,156.56,155.36,153.23,150.25,149.72,149.52,151.56,154.41,151.69,146.64,142.74,138.44,135.91,132.72,127.92,121.01,117.27,110.88,125.35,183.46,195.29,176.41,136.76,139.68,150.10,154.31,162.56,179.87,190.62,149.28,117.79,131.97,167.60,112.49,105.96,73.75,51.30,55.71,73.13,94.41,61.52,47.24,69.36,76.09,75.00,62.32
218.13,211.62,176.77,193.07,145.69,154.32,214.60,211.76,159.58,188.76,195.04,152.67,113.99,112.44,68.52,95.25,54.80,46.99,84.21,142.58,189.13,126.72,110.58,151.54,199.50,228.44,247.17,250.61,236.69,227.82,251.80,225.09,271.22,306.56,264.52,180.88,146.84,133.47,204.63,191.93,110.22,97.14,121.75,96.70,82.55,84.32,81.59,81.18,99.71,94.97,94.33,100.46,133.85,187.47,201.36,207.47,208.52,238.93,163.99,192.64,193.14,204.69,251.70,247.33,238.21,272.24,348.90,331.23,287.33,250.03,245.83,235.61,226.38,231.28,244.61,258.08,288.03,357.51,315.65,396.69,550.07,564.24,700.87,743.40,790.28,817.77,819.13,935.84,933.25,943.94,793.47,561.76,597.65,752.82,711.59,586.96,564.76,699.01,614.21,630.29,676.81,745.47,837.37,927.45,1131.16,1344.86,1372.80,1151.42,1037.09,912.54,1038.78,1142.07,1135.54,1236.40,1378.14,1563.43,1740.99,1837.74,1944.25,1874.04,1700.86,1585.68,1481.90,1370.05,1236.03,1417.74,1562.46,1643.50,1646.13,1586.81,1542.20,1558.15,1512.18,1289.55,1115.01,1087.33,851.57,829.01,962.10,1108.08,1183.20,1403.87,1345.22,1130.91,975.00,841.51,740.21,706.21,825.27,979.43,1050.61,1009.05,1060.87,823.03,647.48,746.65,764.29,599.69,542.71,472.52,389.65,396.47,402.41,489.13,445.95,397.08,372.01,351.62,320.02,313.64,293.13,335.50,299.54,282.98,275.73,269.80,263.41,257.19,251.54,245.62,239.25,233.07,227.76,222.50,216.85,210.22,204.63,199.83,195.07,189.89,185.51,180.86,171.79,156.78,155.97,174.43,186.58,183.25,185.09,182.72,176.91,168.64,166.81,166.52,167.45,166.83,164.69,162.54,160.11,161.51,160.88,158.34,155.99,152.83,151.61,150.65,151.07,150.46,146.95,144.22,141.72,138.95,135.28,131.40,125.84,122.68,119.20,113.07,149.19,194.14,189.79,174.86,134.12,141.83,153.67,156.81,164.76,179.54,167.07,145.06,123.81,104.23,102.67,79.21,59.03,54.41,64.66,79.28,95.28,100.12,51.15,56.70,74.13,80.44,62.20,51.92
191.81,177.74,152.17,170.20,118.66,160.38,211.42,197.48,167.30,146.80,145.11,106.10,119.32,128.50,68.03,63.97,49.66,47.10,63.90,102.29,151.63,89.91,135.73,212.73,240.30,224.49,214.26,202.09,205.53,170.27,188.62,212.09,228.18,244.27,257.70,196.80,162.48,115.77,183.65,145.88,78.72,73.00,82.87,74.38,76.03,74.87,77.20,83.13,114.15,128.30,113.73,136.54,134.58,210.34,258.38,262.30,211.10,227.34,223.15,172.19,164.22,220.64,296.38,329.76,308.56,332.44,385.36,310.04,297.27,255.85,225.76,207.90,222.32,272.80,302.39,328.45,269.24,262.23,265.95,335.18,348.19,384.37,432.23,515.45,547.73,548.37,670.91,765.94,698.11,759.28,764.44,697.63,638.90,785.08,782.76,649.34,581.43,640.55,609.84,728.89,846.63,904.69,957.43,1015.69,1106.34,1320.04,1308.10,1068.61,895.35,866.98,983.67,1009.55,1184.71,1349.70,1541.96,1644.71,1654.26,1804.71,1893.12,1832.71,1709.68,1600.91,1484.47,1320.58,1185.12,1338.11,1328.80,1495.38,1571.72,1349.48,1335.44,1395.13,1462.70,1214.58,999.82,883.38,889.74,948.98,894.63,992.97,1143.51,1346.32,1435.66,1232.13,1147.47,989.97,857.75,730.96,929.20,1099.48,1267.26,1216.43,1111.30,879.12,715.58,768.00,735.33,708.15,698.38,559.46,444.03,401.98,364.27,364.32,376.45,439.18,429.40,417.93,368.32,330.24,336.60,323.02,293.70,285.63,278.80,273.71,266.28,259.39,252.56,245.69,239.53,233.80,228.71,223.06,217.19,211.60,206.17,201.19,196.49,190.95,179.76,165.80,160.78,161.20,174.79,187.35,189.11,188.05,189.08,185.43,176.41,170.32,170.72,170.76,171.85,170.25,167.85,164.96,163.35,164.82,162.93,160.59,157.94,154.99,153.80,151.76,149.95,148.32,146.05,144.67,140.98,138.37,133.74,130.33,127.39,125.30,119.99,116.64,177.35,194.50,184.17,177.16,149.73,134.80,156.09,157.80,164.68,168.27,137.39,148.43,135.84,120.53,119.44,69.91,71.53,75.35,92.31,105.50,126.18,100.63,55.05,89.38,90.17,86.12,65.16,54.06
195.39,144.52,151.47,120.07,130.24,170.45,207.44,175.18,167.19,124.33,137.47,128.48,111.45,86.71,53.75,47.89,45.36,59.61,92.08,86.80,84.04,130.36,107.72,156.49,159.42,164.65,179.58,230.65,219.68,160.84,150.76,195.25,191.61,204.36,199.77,163.51,128.53,101.00,131.10,78.16,66.42,66.43,69.61,72.97,95.57,106.92,111.34,108.22,141.64,180.45,174.97,181.21,151.94,155.82,201.38,252.09,245.28,258.56,256.37,219.66,193.86,208.04,210.45,240.51,247.65,300.72,303.88,275.43,258.50,232.47,215.42,221.52,275.43,319.61,363.87,459.67,387.58,342.13,367.11,485.32,510.20,427.35,422.07,395.63,427.81,448.31,553.46,539.60,581.40,608.74,679.89,761.75,707.51,807.72,802.10,650.91,626.69,625.73,595.83,713.75,877.84,822.96,775.80,819.25,1007.80,1214.50,1084.90,1011.65,810.02,895.00,1044.57,1104.34,1131.82,1270.62,1468.87,1535.28,1446.37,1536.96,1648.61,1685.34,1741.06,1629.78,1513.43,1346.00,1170.68,1107.41,1291.04,1469.71,1447.18,1253.87,1197.14,1387.60,1414.44,1153.66,953.20,935.97,1068.88,1175.61,1073.86,1062.32,1201.81,1412.39,1490.59,1321.28,1109.56,879.90,778.35,788.69,935.26,1146.91,1377.75,1283.84,1063.10,952.92,791.81,871.36,901.83,914.79,810.97,576.17,498.88,452.35,397.41,368.08,350.05,365.21,365.30,411.27,402.04,357.19,342.11,302.74,293.42,286.68,280.38,274.64,265.62,258.41,251.60,244.23,238.41,232.70,229.40,223.80,217.56,211.33,205.40,200.76,195.93,186.58,170.97,165.20,170.42,187.27,188.82,190.32,191.33,190.94,192.31,187.99,175.22,173.95,174.78,175.67,174.96,173.01,170.42,167.38,166.26,165.78,164.30,162.19,159.37,156.92,155.04,152.84,150.42,147.60,145.30,142.86,139.91,137.82,134.90,132.72,129.19,124.94,121.32,130.14,181.20,193.49,179.88,170.87,151.35,136.72,150.58,158.26,166.52,155.86,132.24,131.12,129.02,169.36,110.06,76.58,98.39,97.56,119.91,148.72,130.62,76.50,69.81,110.68,142.29,121.87,87.42,63.31
177.94,136.78,130.91,122.78,161.21,174.28,204.45,182.36,151.32,167.25,164.43,180.38,157.23,99.64,54.26,45.22,45.18,65.46,123.46,151.57,112.21,155.27,124.53,140.87,153.42,202.81,234.47,236.13,232.69,167.91,132.06,165.04,169.75,184.08,149.10,126.73,96.42,91.16,72.95,94.84,100.16,87.83,113.31,161.76,126.22,133.17,155.95,162.58,129.31,183.48,222.26,200.06,198.13,183.51,178.01,254.93,285.89,330.70,293.89,232.64,240.59,247.83,238.32,275.94,248.55,303.05,282.38,244.27,219.68,195.97,199.92,241.89,313.60,378.34,444.63,498.85,474.71,412.73,417.66,547.74,717.27,569.43,556.96,465.67,556.85,537.85,485.68,525.90,680.56,712.53,776.08,841.78,828.77,894.79,808.33,738.07,729.57,640.08,557.65,676.00,787.97,684.43,728.00,889.01,1010.70,1051.78,935.11,779.71,861.71,1015.07,1068.94,1270.31,1368.80,1374.30,1507.29,1392.49,1269.86,1300.14,1429.55,1442.47,1511.51,1644.14,1629.20,1514.93,1245.56,1012.76,1213.52,1221.64,1219.60,1109.25,1230.90,1424.51,1390.09,1133.48,976.62,1086.82,1064.10,1280.42,1225.30,1163.17,1385.72,1499.12,1505.54,1251.13,1058.70,909.06,868.23,1010.88,1040.18,1150.33,1414.50,1368.45,1167.51,951.66,861.40,995.00,1155.49,1024.14,782.17,612.30,547.00,448.99,413.56,394.53,380.19,351.17,327.83,318.81,316.30,308.47,302.43,289.75,280.16,272.90,269.50,261.88,250.78,244.76,240.18,235.37,227.38,221.02,219.93,218.52,215.05,210.97,205.16,200.32,194.29,179.66,171.33,171.53,190.28,194.33,193.99,194.59,194.73,195.35,195.65,184.07,178.74,178.81,179.42,179.03,177.41,175.17,172.83,170.22,168.89,168.60,166.62,163.93,161.35,159.34,156.99,153.94,151.22,149.53,147.96,145.76,143.64,140.34,135.46,132.10,129.00,125.78,121.98,154.87,193.88,189.15,179.58,178.43,158.91,141.58,138.17,156.21,168.74,126.89,114.60,116.85,111.21,123.97,88.84,103.00,123.55,119.98,140.43,133.14,108.16,68.18,90.25,110.06,154.99,173.28,123.14,78.37
168.66,150.56,98.19,139.55,157.00,193.96,190.87,176.45,188.20,196.02,193.90,188.59,160.89,152.57,96.41,47.68,46.09,75.66,148.90,173.96,126.11,140.80,146.40,149.73,169.66,177.76,191.71,251.22,243.21,156.68,115.75,141.19,136.04,148.14,112.75,96.13,78.78,69.25,100.37,148.49,133.28,115.61,158.81,183.63,144.33,143.98,199.60,176.37,185.62,154.27,199.32,212.31,228.59,236.34,176.41,201.37,279.04,271.35,302.15,283.16,310.19,299.91,271.81,336.40,299.47,314.51,302.54,239.34,210.34,183.20,234.84,286.95,321.25,370.39,518.24,575.74,574.76,491.40,421.35,565.27,760.12,726.46,639.44,571.99,634.27,712.05,623.93,536.22,546.31,604.74,740.53,848.23,845.41,896.09,897.89,839.86,757.96,698.26,564.76,583.51,591.45,615.38,712.22,854.00,1029.77,877.54,759.46,712.36,937.22,1194.35,1256.19,1296.38,1516.29,1546.24,1496.20,1306.03,1154.13,1121.37,1286.11,1260.23,1330.93,1526.46,1413.38,1425.66,1201.99,961.66,1047.53,1011.47,1028.50,1098.97,1224.02,1382.82,1429.90,1191.72,1015.54,1174.30,1259.23,1301.00,1330.57,1309.45,1499.42,1470.35,1401.02,1260.26,1105.57,922.31,911.81,1137.36,1272.69,1311.31,1479.37,1384.10,1183.96,1038.02,983.64,1168.40,1184.19,967.09,770.64,666.35,530.82,448.52,459.33,416.47,389.36,377.25,361.35,346.34,328.16,313.82,294.64,290.09,288.71,281.69,276.58,270.93,267.49,272.74,279.51,262.79,244.54,228.79,218.28,210.88,205.86,204.55,203.01,199.85,190.74,176.92,172.12,190.48,197.64,199.07,197.12,199.01,197.89,198.49,196.59,184.51,182.87,183.50,183.72,182.15,180.18,177.56,175.16,172.90,171.65,170.42,168.14,166.16,163.33,161.04,158.35,154.96,152.94,150.78,149.59,146.64,142.61,139.44,135.67,133.45,131.95,127.90,124.93,168.45,193.61,183.21,180.03,177.71,157.47,158.06,144.39,157.69,174.25,141.29,139.27,104.30,101.39,89.88,107.32,103.17,156.02,153.83,162.41,139.86,89.03,112.16,108.99,152.41,134.35,168.31,140.47,100.44
143.90,111.89,102.09,156.21,183.94,195.95,166.70,146.80,152.24,170.70,138.37,126.10,147.95,118.85,128.20,64.06,47.24,100.92,138.12,165.99,154.20,159.94,187.88,177.14,176.44,201.66,240.46,248.56,253.09,171.44,150.15,91.74,124.48,98.56,84.59,75.02,61.81,68.07,115.22,194.26,179.33,137.39,167.12,192.34,156.38,162.84,178.36,213.38,188.31,155.63,173.60,219.68,237.51,263.63,194.82,205.07,211.51,223.48,245.45,278.04,307.57,318.09,326.18,363.24,365.58,343.03,284.93,211.01,207.67,180.07,213.40,291.96,325.80,402.20,477.21,591.21,652.67,608.25,500.65,486.38,597.71,673.95,583.67,594.64,650.52,638.12,696.56,676.28,620.24,736.76,787.36,801.38,705.78,720.30,844.61,725.41,648.17,575.88,536.55,593.99,648.49,739.74,880.12,950.49,867.03,794.31,652.16,848.30,911.74,1106.56,1357.64,1465.26,1519.82,1396.91,1411.41,1318.14,1185.30,1017.17,1108.78,1113.94,1210.86,1415.36,1225.35,1157.97,1128.70,926.31,989.25,1072.72,1222.27,1257.37,1353.90,1415.08,1512.25,1251.34,1078.88,1178.26,1411.06,1504.46,1448.04,1508.47,1599.45,1411.39,1218.24,1101.95,1020.15,983.50,1034.68,1067.99,1220.61,1420.64,1608.88,1475.24,1296.94,1231.94,1178.81,1296.71,1180.09,984.54,886.80,695.62,506.69,483.56,514.52,429.02,462.41,400.24,373.89,363.74,351.05,341.29,329.82,321.69,313.39,304.01,296.72,287.04,306.20,331.46,290.66,266.63,258.02,263.96,283.10,263.81,215.09,196.49,194.46,195.17,185.88,176.13,191.45,205.84,202.20,203.16,200.73,201.51,201.16,196.88,190.00,188.00,187.29,187.73,186.64,185.18,182.59,179.91,177.67,175.73,173.93,171.94,170.21,167.74,164.84,161.80,159.40,156.99,154.78,151.90,149.42,145.94,143.01,140.01,137.85,140.23,138.69,129.99,127.39,172.13,191.61,181.45,180.36,172.93,160.53,164.08,149.83,154.41,181.94,164.69,127.92,128.13,112.03,111.32,137.09,111.20,203.09,202.26,176.42,160.79,80.85,128.97,142.23,137.37,167.81,170.05,158.79,118.42
120.19,81.34,112.97,121.08,139.06,179.95,187.89,166.32,125.09,157.11,152.97,135.59,100.08,105.14,64.97,45.40,75.56,86.32,101.35,139.07,176.26,203.70,221.61,184.13,197.55,237.50,243.13,178.97,223.82,175.78,152.50,87.32,79.49,81.94,68.40,57.42,77.17,121.55,124.48,189.51,193.50,142.14,181.39,197.56,168.85,189.17,206.94,252.00,221.35,192.25,199.28,233.05,268.35,282.29,215.98,230.30,235.35,260.99,266.90,232.25,251.31,280.76,330.58,325.44,335.06,304.25,320.32,174.26,172.66,172.71,217.04,280.20,332.42,390.37,486.40,592.52,520.15,563.53,627.28,654.88,690.10,694.96,505.52,501.32,565.20,551.35,552.53,584.91,701.13,750.73,665.38,689.72,584.12,667.14,851.93,791.34,661.71,581.30,497.59,663.34,701.69,821.76,892.14,894.00,751.31,651.92,709.69,1006.40,1170.32,1272.12,1414.25,1368.05,1448.32,1280.35,1259.98,1268.92,1199.39,1044.55,912.74,966.62,1081.54,1307.52,1224.99,976.30,897.27,1010.80,1231.44,1293.36,1416.43,1500.58,1559.67,1551.05,1593.41,1314.14,1207.49,1230.25,1340.06,1547.79,1664.23,1723.50,1650.97,1449.61,1310.00,1273.07,1222.47,1134.41,1262.36,1252.53,1363.09,1511.22,1725.74,1647.23,1542.47,1467.90,1355.16,1364.40,1327.84,1186.22,980.50,688.59,542.99,538.53,478.38,498.44,541.76,480.30,409.53,402.45,379.99,366.12,362.31,332.02,339.95,330.70,308.33,306.05,320.64,328.09,299.99,280.62,264.75,304.54,363.14,287.80,224.28,199.19,191.41,186.50,181.86,181.90,212.22,208.44,206.34,206.98,203.85,204.45,200.50,193.01,192.73,192.59,192.63,191.47,189.88,187.55,185.15,182.71,180.42,177.83,174.95,173.59,171.02,168.37,165.99,163.34,160.40,158.32,155.83,153.26,150.67,147.25,144.23,143.53,146.45,143.91,139.01,132.02,130.62,181.06,188.67,180.90,177.54,167.80,164.05,163.15,150.06,169.77,187.25,152.88,135.76,119.46,112.64,147.11,190.55,112.11,177.67,234.79,139.01,125.56,85.76,121.94,122.01,139.01,173.99,166.74,163.87,142.13
94.88,80.65,117.34,147.70,156.94,188.93,195.12,159.99,110.44,135.81,135.69,110.50,94.34,59.87,40.57,62.67,87.71,124.65,119.20,130.81,163.61,215.76,207.74,214.81,237.83,214.89,218.79,149.46,180.38,185.79,110.33,58.47,54.18,54.87,57.92,101.93,127.86,188.25,165.69,211.95,194.69,160.82,212.54,223.98,185.82,193.80,187.13,254.17,202.58,215.35,197.69,254.85,251.76,266.80,253.26,235.28,239.73,247.21,202.06,221.14,237.97,251.10,289.54,361.74,301.09,292.93,252.42,172.91,178.51,183.44,238.21,273.08,332.13,409.50,455.39,468.44,478.28,622.48,680.00,762.98,801.22,705.21,517.06,436.15,521.73,493.24,455.92,622.62,760.94,815.02,603.59,553.89,628.94,776.73,860.27,862.49,698.92,648.03,514.28,539.38,601.94,783.97,692.52,756.87,784.45,628.46,699.15,946.61,1217.22,1443.09,1403.25,1180.32,1238.64,1123.70,1099.78,1185.39,1152.20,1016.88,895.79,879.28,948.96,1234.85,1094.76,892.52,980.37,1086.94,1312.99,1477.59,1510.04,1535.61,1678.71,1731.14,1670.21,1405.43,1364.07,1473.45,1549.01,1616.78,1727.80,1762.31,1582.19,1496.82,1517.84,1494.23,1361.31,1338.99,1454.55,1501.10,1584.14,1645.87,1642.13,1719.89,1544.39,1356.72,1193.39,1101.99,1129.50,1068.26,958.75,743.25,626.12,627.00,530.46,590.97,572.32,471.09,483.08,466.66,468.20,406.54,365.53,354.95,369.58,323.26,337.49,346.01,360.52,316.95,334.38,311.94,295.60,374.40,375.11,279.77,231.07,214.23,198.45,188.41,197.29,206.44,224.46,211.80,210.84,210.53,206.86,203.41,196.52,197.08,197.08,196.54,196.02,194.23,192.31,190.03,188.01,185.59,184.03,179.79,176.33,173.98,172.12,170.18,167.39,164.10,161.25,159.38,156.88,154.00,150.88,148.38,147.31,149.44,146.71,142.59,138.87,134.18,134.93,187.28,183.07,179.07,172.92,176.55,169.43,163.05,153.85,181.35,179.35,133.25,123.29,123.45,138.67,190.46,164.73,149.68,197.37,219.24,142.13,122.42,94.75,128.34,162.47,145.48,182.18,168.76,151.09,128.09
88.01,97.98,132.75,115.59,146.45,143.99,163.49,169.69,109.49,121.87,113.16,86.27,64.63,45.00,44.91,72.28,96.96,136.02,164.79,178.07,175.55,158.62,166.61,203.00,225.02,203.34,166.13,176.73,125.62,137.08,85.13,51.40,54.39,101.26,146.73,158.44,190.88,172.52,209.78,213.99,176.03,176.03,206.58,205.49,179.17,138.04,153.87,223.01,162.03,145.63,154.47,190.96,199.89,217.40,238.48,224.59,216.46,175.03,202.39,278.80,289.03,275.84,284.06,314.31,259.78,258.64,188.92,202.83,236.18,256.98,280.93,339.74,383.10,415.36,348.48,382.38,519.36,621.27,696.05,723.43,568.28,563.77,501.12,364.73,397.05,404.06,445.63,530.21,640.88,748.91,549.60,525.84,667.83,791.28,700.15,743.32,740.48,765.98,622.26,481.29,547.99,671.90,634.93,564.24,577.73,560.03,701.27,906.18,1149.89,1324.56,1261.20,1042.21,1090.04,996.36,1050.36,1148.62,1153.60,1071.89,880.11,816.00,1024.12,1113.10,910.01,889.55,1188.54,1311.99,1365.06,1283.64,1233.29,1306.39,1567.35,1694.51,1756.44,1556.30,1600.86,1687.82,1574.79,1541.47,1560.55,1642.84,1400.78,1365.51,1383.38,1336.12,1541.27,1577.82,1511.04,1382.29,1490.74,1442.86,1412.09,1592.40,1472.53,1271.99,1140.90,987.43,893.17,884.89,870.21,823.10,787.15,747.10,599.72,646.31,595.29,569.95,495.21,487.17,462.66,441.53,399.98,403.50,349.32,367.51,363.96,335.69,350.90,308.08,337.82,296.39,317.23,385.31,379.05,294.10,234.74,212.99,191.09,213.56,231.75,220.28,227.04,215.45,214.50,213.91,208.92,202.84,201.05,201.67,200.47,199.89,199.39,197.24,195.43,192.91,190.60,188.38,185.01,181.14,177.30,175.68,173.78,171.15,168.14,165.58,162.11,159.41,156.79,154.65,152.20,149.99,150.40,148.89,145.30,142.73,138.99,135.74,138.77,177.69,175.71,174.24,171.63,179.60,172.29,165.90,158.20,176.98,182.83,150.42,153.72,144.23,164.53,211.85,128.73,150.77,198.44,231.82,172.10,126.77,99.13,144.15,159.50,171.59,194.54,169.08,148.84,116.97
82.83,76.14,131.92,98.37,107.49,127.07,161.57,136.77,96.33,83.53,64.34,41.05,38.33,50.61,72.32,91.61,121.60,124.71,124.66,142.57,132.13,163.18,192.36,236.43,174.43,150.11,184.23,125.24,159.82,81.23,53.39,61.00,76.41,130.40,181.54,200.72,216.43,213.30,224.33,180.27,145.60,173.40,177.97,203.22,174.34,116.05,126.43,169.75,134.49,102.26,98.58,107.71,136.87,187.39,214.18,216.72,185.31,141.16,231.37,228.19,271.38,222.03,239.58,252.76,273.88,182.82,187.28,220.28,245.98,242.78,252.73,289.52,323.07,360.25,314.68,456.72,500.20,529.07,538.70,522.56,429.73,369.92,359.99,414.35,390.80,359.62,373.56,464.80,605.47,626.45,481.69,548.32,724.48,826.15,716.90,611.80,628.20,789.92,740.09,570.13,493.96,531.88,501.52,538.05,609.16,689.00,819.16,1024.72,1229.19,1129.75,1055.56,946.91,901.08,913.49,928.23,1055.51,1042.71,976.72,834.07,768.75,857.58,853.01,845.85,1051.69,1157.34,1097.55,1134.50,1080.78,1033.03,1271.08,1366.90,1543.28,1674.87,1765.04,1739.72,1591.05,1416.24,1348.80,1494.81,1655.68,1462.54,1199.40,1141.13,1238.84,1501.86,1581.45,1331.77,1165.48,1293.66,1217.02,1243.47,1372.74,1535.79,1467.76,1301.06,1153.05,930.73,775.96,745.17,703.25,786.45,719.96,705.21,621.65,529.08,458.94,432.44,414.97,401.98,435.15,455.02,406.59,358.43,384.28,358.55,333.80,331.81,305.99,341.48,306.72,341.22,419.75,346.54,282.40,239.94,214.99,208.19,243.64,231.64,230.89,230.03,218.05,218.67,216.49,209.29,206.31,206.02,205.92,204.19,203.40,202.58,200.11,198.35,195.71,193.13,189.49,186.36,182.30,179.42,177.63,174.81,171.96,168.99,166.20,163.18,160.89,159.19,155.92,154.29,152.59,151.19,149.09,145.66,142.92,140.23,137.32,146.78,165.83,172.81,180.02,184.39,182.52,171.81,164.70,161.51,172.12,189.32,168.42,159.63,164.14,183.78,191.20,150.82,205.53,199.11,251.42,191.58,145.63,110.04,147.52,170.69,197.63,183.94,164.11,125.75,120.04
89.37,59.03,117.56,87.50,129.98,142.15,171.42,147.43,118.26,113.60,50.68,36.91,58.22,84.58,88.63,77.85,82.20,108.08,119.38,128.66,134.60,177.32,205.29,216.03,185.92,156.42,129.02,131.73,104.94,58.41,75.69,106.03,113.32,132.49,145.88,164.05,185.44,189.11,207.20,140.65,140.31,139.69,143.04,138.98,108.54,84.90,87.04,91.54,88.27,91.91,97.69,101.95,106.35,116.38,138.22,147.31,125.61,119.95,174.65,158.99,147.46,174.78,215.16,177.99,184.87,161.46,174.44,190.83,188.55,181.67,191.26,201.44,204.45,244.89,265.51,352.90,372.79,353.78,354.27,344.53,329.94,369.34,494.78,553.59,494.34,452.66,390.80,398.41,430.04,457.60,436.00,534.94,589.66,684.68,653.51,534.16,606.73,676.16,781.53,602.15,442.88,441.57,458.84,667.08,800.63,938.74,1067.84,1073.26,1043.31,969.22,868.08,921.46,828.89,939.06,852.34,948.67,938.27,936.49,781.45,804.36,862.65,908.47,857.39,908.07,881.77,927.07,930.82,1008.59,1071.05,1092.77,1184.01,1390.39,1609.19,1626.92,1497.78,1423.91,1257.53,1379.74,1560.34,1502.14,1447.45,1218.02,1023.48,1160.15,1423.93,1548.72,1232.54,1012.93,1139.35,1056.57,1071.45,1244.85,1447.24,1334.65,1215.95,1049.07,865.40,741.93,696.01,642.29,694.08,643.73,749.97,776.70,616.45,538.79,522.62,485.57,443.02,381.65,431.82,441.57,391.51,418.24,413.11,350.69,302.04,288.32,333.47,299.09,348.64,392.49,314.89,255.52,229.58,218.02,242.79,251.81,238.35,235.28,230.95,222.73,221.68,217.70,210.31,210.36,209.86,209.34,207.23,207.12,204.59,202.00,200.27,197.75,194.68,191.34,187.97,184.07,181.35,178.41,175.08,173.22,170.56,168.03,165.28,162.68,159.98,158.03,156.95,154.99,151.96,149.17,146.00,143.32,141.16,138.95,151.62,167.40,177.35,186.10,190.34,180.55,172.57,165.74,166.88,177.02,187.79,181.81,180.09,154.08,152.37,148.71,153.69,207.12,252.95,224.67,170.15,135.17,116.87,146.12,182.57,175.16,153.54,151.20,124.79,182.38
116.35,73.37,60.15,90.52,106.53,106.13,146.73,141.70,39.04,39.33,38.18,44.17,76.25,104.04,130.65,110.30,121.38,103.60,143.00,176.43,166.16,155.84,183.33,205.63,172.70,136.57,102.99,90.70,62.01,54.57,59.07,69.05,92.99,103.14,117.62,138.63,150.18,188.21,196.68,117.47,88.89,83.89,94.95,80.16,78.96,82.03,92.88,96.59,103.03,112.17,126.92,135.79,143.06,146.74,137.59,120.60,125.07,131.83,125.46,136.62,140.40,136.99,154.28,157.93,175.88,203.24,187.27,195.72,175.64,187.11,181.43,212.40,236.75,245.89,226.77,247.46,290.30,322.01,339.41,339.63,458.03,462.33,557.15,670.58,622.65,571.82,483.19,403.82,396.80,490.16,510.83,506.34,520.50,621.24,646.28,593.40,491.27,594.76,649.40,553.02,412.81,475.50,450.68,589.41,781.62,960.26,1157.85,926.33,831.23,888.63,738.38,818.34,739.25,932.24,753.54,804.67,830.32,876.53,741.27,845.21,1076.73,1148.28,903.76,995.57,1022.08,1219.50,1030.24,1220.76,1339.40,1275.56,1207.83,1443.51,1640.71,1458.68,1261.80,1266.47,1139.19,1299.25,1528.81,1345.84,1214.30,1129.88,992.56,1266.56,1491.44,1518.64,1217.02,977.05,925.66,958.71,1154.54,1303.91,1239.84,1018.46,1031.03,945.36,856.98,880.08,788.67,664.56,598.05,655.85,778.27,665.15,554.02,566.39,567.75,505.02,445.37,391.39,388.26,410.13,414.24,450.71,377.18,332.33,352.55,305.39,291.25,285.02,319.93,386.32,325.77,246.43,218.95,235.13,260.15,252.84,236.48,241.02,233.69,227.91,223.94,218.05,213.71,214.12,213.24,212.46,211.20,210.34,207.23,204.75,202.21,199.31,196.22,192.71,189.07,185.12,182.60,180.04,177.22,174.99,172.72,169.29,165.88,163.36,161.20,160.48,159.09,156.16,153.32,149.90,146.55,144.25,142.21,140.91,156.64,167.28,180.09,189.37,188.95,178.43,172.97,166.68,170.68,179.43,202.65,193.01,178.94,155.60,179.85,181.49,205.82,165.80,248.47,228.37,175.54,138.35,129.14,158.73,186.31,189.31,160.20,134.23,124.86,144.38
100.06,107.52,49.53,54.77,101.74,131.93,146.76,81.09,39.16,49.01,60.89,86.62,101.98,133.01,162.87,135.33,160.25,138.70,132.45,161.52,198.50,213.27,198.92,165.60,121.26,139.32,69.25,47.23,60.12,85.57,137.56,72.75,61.46,64.31,83.71,103.56,126.16,156.41,140.28,88.22,75.85,80.00,78.72,76.97,99.44,104.33,121.88,134.46,138.34,141.97,151.34,155.76,151.63,153.02,176.54,160.84,146.63,159.14,155.72,164.87,167.62,167.82,172.31,181.60,200.96,259.72,285.33,274.57,243.43,206.16,244.45,251.47,302.46,323.31,318.62,322.19,449.50,491.36,492.78,416.06,484.03,548.49,562.59,754.85,762.93,668.38,583.65,471.01,401.17,501.00,642.51,692.22,651.20,621.11,639.78,583.89,468.78,464.40,468.35,460.70,470.84,620.28,503.47,543.70,745.63,958.53,1119.44,835.63,682.33,649.03,634.65,650.68,668.46,858.23,713.49,679.05,737.97,797.22,777.73,890.18,1129.64,1094.22,1072.48,1228.68,1296.09,1400.79,1202.17,1273.68,1548.74,1462.10,1361.75,1544.58,1644.40,1472.16,1248.07,1050.87,1165.08,1335.49,1431.97,1269.94,1045.52,993.47,967.20,1076.86,1301.38,1515.28,1292.16,1059.33,862.46,1018.34,1174.62,1227.35,1019.76,761.35,801.54,867.37,731.32,847.20,857.13,765.57,669.23,555.20,722.66,665.67,515.50,471.10,531.42,486.93,406.91,377.47,366.06,376.36,376.47,443.89,405.84,403.86,370.57,318.80,282.94,262.60,281.00,331.55,300.98,230.92,239.92,262.35,263.13,248.03,251.42,245.12,239.09,230.74,224.87,221.32,218.74,217.90,217.41,216.40,214.84,212.89,210.19,207.25,204.18,200.96,198.13,193.56,190.16,187.30,184.60,182.16,179.37,175.91,174.11,170.41,167.05,165.71,164.20,162.56,159.68,156.46,153.96,150.36,147.54,145.53,143.59,143.88,169.73,176.22,183.65,190.17,184.99,176.81,172.67,169.75,175.53,181.13,207.79,206.59,168.96,169.89,180.73,225.20,236.56,182.67,238.34,237.42,162.09,163.43,152.18,180.69,191.24,175.56,149.27,153.34,143.65,165.13
107.34,77.41,70.30,51.29,92.98,100.77,153.45,63.89,43.09,53.96,75.81,94.30,106.46,116.79,143.66,164.99,189.71,170.31,134.70,172.57,194.85,213.54,145.45,119.83,127.03,75.91,45.45,61.38,77.87,145.15,205.85,157.29,75.11,54.29,56.14,67.12,94.72,106.87,83.78,66.82,72.71,72.19,72.63,100.13,144.43,177.72,181.02,180.80,185.34,192.49,197.94,191.97,178.83,167.16,194.50,218.06,215.38,190.07,176.39,173.54,183.31,189.99,202.85,248.13,205.62,235.63,316.23,333.83,282.17,229.08,235.79,265.82,300.27,347.43,402.64,384.59,462.46,627.71,701.65,517.39,457.15,662.44,627.44,703.74,849.52,771.25,607.16,533.58,459.00,431.38,622.95,632.33,728.20,695.39,562.08,494.23,421.19,400.41,451.26,427.97,495.10,613.38,479.67,609.78,784.18,956.92,1022.63,815.71,630.12,727.56,800.00,847.38,687.27,684.48,730.14,781.51,816.59,973.77,901.75,894.93,1144.05,1126.48,1223.96,1419.61,1561.12,1625.99,1450.04,1473.00,1622.42,1591.40,1535.06,1673.39,1495.41,1290.15,1112.88,994.14,1068.86,1149.68,1249.86,1101.79,884.32,986.09,1205.01,1248.50,1346.66,1343.15,1249.11,1103.87,876.39,842.35,931.73,1135.41,1055.73,754.34,622.62,611.24,607.04,681.63,787.05,836.08,705.75,534.15,618.59,685.88,599.62,489.52,490.58,527.78,453.95,407.24,344.59,341.66,398.52,424.14,358.92,377.00,386.32,338.09,301.44,270.84,253.99,243.48,246.35,256.82,268.10,273.47,263.44,255.73,256.57,255.14,248.91,234.26,229.68,226.90,225.28,223.17,222.32,220.63,216.94,213.87,210.33,207.18,204.87,202.02,198.66,195.14,193.21,190.42,187.00,184.13,180.41,177.87,174.58,170.93,169.75,167.67,165.37,162.88,159.31,155.99,152.70,149.76,148.17,145.91,144.53,156.87,174.66,177.49,186.27,189.18,181.39,177.66,173.52,173.41,177.55,186.85,198.11,212.56,194.89,180.83,210.21,247.11,262.96,211.28,226.23,245.43,169.59,167.63,183.17,218.59,161.00,167.83,144.58,122.56,174.80,154.26
91.53,136.25,102.73,54.27,43.78,43.35,88.67,56.58,42.78,60.80,83.11,119.05,137.84,125.10,122.49,125.98,167.03,193.20,176.65,165.78,211.26,216.93,177.32,137.16,109.71,47.26,55.74,74.07,96.16,145.21,181.07,193.75,109.53,64.56,82.67,59.27,74.63,79.72,64.79,71.39,75.14,77.48,78.90,111.76,118.14,145.45,147.83,166.98,189.54,196.19,184.30,176.17,190.71,186.42,174.83,178.09,195.74,217.49,231.37,258.36,251.80,272.54,247.85,238.99,278.54,213.67,284.05,270.28,286.88,241.67,267.76,265.56,292.72,351.96,400.16,463.04,554.82,677.78,823.34,664.48,507.70,675.13,826.27,813.55,903.63,755.16,707.75,557.00,492.51,420.29,488.68,535.27,655.11,777.17,713.33,570.30,425.37,429.57,625.49,653.94,654.33,623.71,540.40,493.79,621.64,794.95,880.62,723.33,609.07,715.79,985.45,980.13,793.61,779.95,963.30,993.24,939.42,1019.82,1050.46,979.25,1188.07,1259.03,1176.73,1288.66,1485.58,1699.56,1611.60,1537.32,1509.14,1624.58,1663.75,1680.59,1444.95,1335.43,1189.17,1123.36,973.61,977.13,1180.20,1178.46,898.56,995.45,1126.78,1234.69,1379.49,1155.76,987.21,908.53,853.31,850.61,1082.99,1271.28,1109.88,940.85,820.57,727.93,577.11,591.96,757.59,652.58,700.15,530.99,553.45,636.90,523.74,488.73,484.51,519.29,440.92,422.72,378.72,344.90,376.04,402.79,377.99,359.01,393.56,351.66,318.60,266.93,249.21,251.52,274.77,279.44,285.05,278.77,268.80,262.84,260.28,263.75,251.24,236.11,233.49,230.91,228.05,227.90,226.01,224.61,219.70,216.27,213.16,209.56,206.99,204.09,200.80,198.20,195.94,192.59,189.45,186.92,182.89,179.17,176.47,174.19,172.26,169.38,167.11,164.81,160.79,156.72,153.14,151.48,149.88,147.21,148.49,169.92,174.91,179.92,188.83,184.90,180.21,176.93,175.61,177.47,180.09,193.98,214.47,222.76,202.30,196.12,239.79,281.81,249.06,244.62,237.73,227.16,190.94,173.18,207.21,189.20,140.38,131.91,118.92,106.92,146.54,162.31
120.43,149.00,112.93,82.58,70.66,42.94,44.87,43.55,44.46,74.48,94.80,111.94,153.80,168.64,166.65,150.07,154.06,168.02,206.98,195.59,222.57,223.87,179.94,178.87,94.02,45.47,64.88,90.86,148.07,173.93,249.31,225.97,168.82,101.74,131.24,86.99,76.94,82.06,112.95,86.59,120.72,139.81,121.77,81.57,102.50,113.86,94.36,97.86,107.43,110.74,121.53,141.97,151.29,164.99,191.24,196.44,196.90,218.77,226.67,243.80,301.23,315.41,302.11,275.31,317.76,247.32,223.83,267.05,273.71,279.92,293.48,315.56,294.45,336.46,400.01,454.00,557.12,753.69,869.67,785.20,661.79,638.15,890.77,944.43,821.60,657.78,587.20,585.91,541.14,463.71,506.36,637.07,647.67,705.63,746.36,629.79,477.41,417.11,558.70,754.02,816.97,748.97,701.03,562.66,536.07,551.87,680.46,597.50,686.69,868.95,1115.40,1137.54,953.89,840.94,1022.87,1220.69,1206.28,1171.59,1219.18,1143.72,1227.22,1359.13,1368.80,1446.86,1590.64,1574.56,1424.40,1367.15,1273.60,1379.37,1571.89,1690.11,1610.75,1564.33,1394.19,1305.30,1137.10,929.19,929.91,1051.67,859.64,885.19,1073.06,1148.62,1363.76,1272.70,1075.69,879.66,785.52,999.86,1201.09,1376.50,1122.60,878.36,868.68,827.87,680.02,532.78,564.46,501.45,527.61,503.35,520.65,637.17,521.94,428.14,506.03,553.62,506.24,468.65,475.39,393.17,328.39,328.56,345.35,316.13,308.95,272.11,265.40,256.79,260.38,273.49,293.47,290.63,315.38,307.77,283.77,269.41,265.83,269.44,249.31,238.88,238.00,235.16,232.49,231.82,230.04,228.10,224.15,219.66,216.95,213.60,209.82,206.17,202.99,200.62,197.38,194.55,191.19,187.74,184.69,181.44,178.78,176.24,174.10,171.64,169.62,166.86,163.08,159.42,155.92,153.97,151.32,149.52,155.88,174.39,178.63,183.93,189.32,182.36,179.73,178.15,178.73,181.92,182.36,190.26,201.80,220.90,204.57,215.35,269.57,307.25,293.41,281.13,275.12,255.25,206.95,182.45,199.33,158.49,139.35,133.60,103.17,102.10,130.11,133.13
134.83,133.93,117.66,113.98,83.24,67.20,36.22,34.17,39.84,72.67,83.81,112.43,164.74,203.65,200.89,167.72,200.00,196.56,196.46,240.83,192.16,154.74,132.61,130.68,51.47,58.09,85.44,130.99,152.78,174.00,250.76,202.41,196.55,123.24,142.75,114.72,167.17,171.11,142.88,101.00,172.30,166.71,170.98,143.83,104.41,178.01,128.17,151.07,152.56,134.20,106.32,123.51,142.19,155.09,180.77,208.52,224.10,218.72,203.00,213.35,246.17,264.21,312.00,289.54,360.36,285.88,265.66,225.80,237.07,254.39,274.33,304.29,322.55,318.62,343.48,374.85,465.19,610.04,757.44,898.80,835.22,691.16,889.98,997.02,765.83,653.80,713.91,741.79,639.42,534.91,455.45,503.11,548.93,621.03,661.80,628.77,513.25,397.19,514.82,707.33,853.24,706.25,811.45,810.33,736.89,715.76,619.38,628.91,624.09,836.84,1077.40,1190.90,1146.23,1040.16,1015.71,1258.57,1470.36,1400.98,1398.45,1228.02,1085.51,1156.66,1275.67,1336.75,1513.65,1447.38,1209.47,1182.04,1089.63,1258.04,1463.45,1685.88,1649.52,1487.58,1302.89,1132.68,1045.15,929.36,855.06,870.78,870.96,1089.71,1294.23,1398.07,1494.47,1428.09,1170.14,950.77,760.13,978.50,1242.33,1340.06,1070.38,809.08,639.68,629.13,564.53,603.64,599.22,637.72,514.63,455.82,515.17,523.14,503.93,436.79,586.96,512.81,420.93,466.36,494.92,417.65,364.90,338.97,312.23,288.18,274.75,289.15,295.51,297.50,290.65,308.03,306.99,325.01,402.00,354.14,290.19,287.22,272.74,274.81,246.15,243.12,242.04,239.92,236.34,235.56,234.08,230.79,226.01,221.74,218.77,215.61,211.84,208.19,205.14,202.26,199.28,196.54,192.63,190.44,187.46,183.88,180.18,177.88,175.74,173.59,170.96,168.42,164.49,160.92,158.65,155.52,153.19,150.78,161.39,177.38,185.84,187.19,186.06,182.21,180.17,179.85,182.35,187.86,193.07,205.45,214.93,222.54,219.50,219.56,242.57,303.43,323.94,274.12,270.12,229.28,242.72,216.23,140.92,145.69,121.70,125.72,101.15,88.54,101.47,117.22
156.43,149.91,138.40,108.09,118.31,78.49,36.04,34.12,35.84,69.00,102.91,130.29,147.33,201.31,233.24,208.70,200.31,200.63,219.98,220.48,162.31,120.26,98.59,50.86,51.57,76.01,121.61,170.78,169.67,157.28,197.19,196.15,173.76,167.42,183.24,155.98,208.06,200.88,125.76,127.38,176.80,191.82,182.35,164.03,122.67,141.14,153.54,143.85,196.65,145.63,140.71,114.70,138.81,150.95,164.63,177.93,187.40,196.50,182.03,194.05,219.30,270.39,282.55,278.41,350.72,316.78,276.58,260.46,275.55,263.83,271.81,312.84,312.92,327.50,392.24,451.90,463.11,587.80,653.98,802.05,920.28,826.39,955.67,1014.46,815.59,809.55,864.83,792.05,742.17,644.67,506.18,464.42,545.99,606.97,579.67,533.03,532.57,401.05,490.28,666.69,836.86,654.77,650.18,849.11,954.29,973.80,894.97,841.32,664.59,970.01,1194.97,1336.58,1335.26,1262.53,1197.33,1382.49,1576.35,1502.39,1310.69,1156.95,974.18,913.49,982.73,1184.32,1421.93,1275.52,1119.18,997.72,992.28,1147.84,1386.30,1659.09,1559.06,1383.17,1252.50,1289.21,1224.00,1042.49,817.40,786.04,991.40,1139.63,1197.95,1265.62,1280.07,1236.45,1201.96,941.54,741.97,963.07,1048.28,1236.70,1071.00,917.24,785.16,672.44,738.32,862.14,877.14,793.67,682.24,492.99,432.59,425.43,454.60,427.44,556.38,537.46,452.65,422.04,434.38,441.39,440.88,401.98,301.29,280.59,296.70,330.21,318.66,322.49,305.95,367.86,345.63,342.84,408.82,347.07,330.51,298.19,279.16,272.14,248.91,247.52,245.97,242.68,240.77,240.03,237.14,233.21,228.57,223.60,220.97,217.58,214.65,210.52,208.00,204.57,201.50,198.29,195.77,192.72,189.21,185.71,182.00,179.65,177.51,175.09,172.33,169.13,165.29,161.53,159.12,157.64,157.25,153.80,163.87,174.92,181.91,184.14,181.74,180.72,180.96,183.91,185.71,193.87,222.71,224.95,220.83,200.55,196.43,189.67,221.16,288.79,311.25,272.98,261.17,287.74,287.43,268.56,155.51,119.44,104.81,98.13,119.65,85.36,119.20,117.71
201.37,150.28,140.59,141.13,126.76,90.56,33.00,36.06,40.39,57.06,104.81,127.71,155.82,191.62,221.66,200.67,170.23,177.93,185.50,165.91,126.10,95.23,48.67,49.69,62.64,73.19,95.93,107.82,106.38,120.49,148.32,163.74,141.97,172.32,170.17,177.37,228.72,187.82,124.65,153.61,220.91,232.83,190.05,195.59,136.73,140.93,152.06,177.17,202.84,152.92,171.04,122.24,132.76,148.45,153.73,157.74,160.30,159.29,164.93,175.83,184.38,213.86,248.84,273.80,274.33,270.58,284.14,283.47,322.55,268.05,288.29,327.38,387.08,380.47,362.47,451.27,550.67,624.29,719.15,886.84,977.84,1032.01,1097.69,1102.14,989.69,969.52,798.12,648.98,602.13,557.07,526.28,525.60,527.40,590.31,484.66,464.80,466.87,404.24,457.59,608.31,787.68,608.88,616.28,779.00,968.35,1173.26,1104.55,845.81,693.06,894.97,1116.75,1205.51,1260.84,1385.05,1436.60,1564.60,1603.43,1378.36,1149.65,1019.16,939.54,801.11,952.40,1250.63,1356.29,1111.19,924.38,870.20,973.26,1218.48,1467.51,1736.24,1637.22,1435.13,1465.87,1532.61,1335.41,1076.39,905.59,755.22,858.49,833.98,977.79,996.98,1043.08,982.23,1073.10,994.89,783.41,768.07,971.49,1127.68,854.56,768.13,843.00,812.40,922.10,897.27,867.39,744.02,714.72,662.08,569.86,472.04,401.82,380.30,405.27,457.54,429.80,402.05,415.20,414.14,368.93,300.80,302.09,320.59,345.77,345.03,342.59,340.19,333.96,433.08,407.94,360.59,389.13,364.30,336.97,314.18,287.79,275.61,252.84,250.86,248.91,245.48,245.31,243.72,239.22,235.16,230.00,226.00,222.52,219.32,216.16,212.73,210.32,207.04,203.47,200.13,197.57,194.49,190.86,186.98,183.74,180.73,179.10,176.24,172.78,170.06,167.35,165.11,161.25,162.14,159.83,155.71,163.53,173.57,177.85,177.73,180.03,181.78,182.15,187.04,186.76,196.94,266.87,270.58,236.10,201.00,177.13,183.11,221.19,252.29,285.63,311.59,249.13,237.26,284.43,290.30,193.96,152.56,149.62,110.54,79.66,84.63,136.96,133.65
213.00,197.30,175.98,131.38,110.71,110.39,37.15,35.03,38.40,50.81,79.76,124.78,143.41,141.76,175.32,199.90,144.49,155.50,170.16,176.47,101.18,53.52,45.62,60.50,78.80,102.40,121.14,137.07,141.73,141.29,155.78,140.51,128.36,139.59,159.32,189.63,217.26,195.45,135.31,165.90,254.10,262.51,218.07,188.54,134.99,152.06,166.34,180.37,237.84,174.96,224.65,150.07,122.49,134.90,135.99,138.25,145.54,162.90,181.03,186.02,202.47,198.94,196.52,234.52,278.93,244.75,262.16,295.84,357.81,308.04,298.18,327.60,391.57,416.05,413.28,471.73,588.66,754.72,826.43,778.11,814.81,873.94,1059.46,1221.91,1086.93,849.89,727.50,740.47,624.14,631.26,674.79,574.89,557.37,636.14,604.53,549.79,539.04,443.55,456.12,551.13,652.21,552.12,615.05,796.79,913.02,1029.25,1079.30,837.85,800.59,878.82,938.10,1053.59,1156.62,1304.53,1552.26,1695.15,1532.30,1284.22,1133.66,1040.15,901.26,763.63,840.18,1073.59,1179.27,996.83,815.93,976.76,1171.71,1394.71,1663.73,1798.97,1715.73,1546.70,1666.00,1608.16,1394.40,1298.15,1109.16,825.10,728.53,705.08,822.01,750.31,911.75,918.99,797.99,735.62,748.45,766.07,1077.02,983.94,719.30,672.50,582.32,614.49,764.02,688.63,655.89,571.14,543.53,583.83,488.46,426.15,414.72,427.96,361.07,434.64,412.13,379.38,352.38,315.07,333.22,351.65,356.94,356.14,385.60,358.00,377.27,376.64,332.98,408.55,432.97,357.95,339.00,319.61,314.61,318.57,303.25,294.42,256.89,253.69,250.98,249.78,248.53,245.83,241.66,237.21,232.85,227.84,224.44,221.03,217.85,214.46,210.90,207.69,205.12,202.52,198.54,195.06,191.96,189.00,185.89,183.45,181.59,180.04,176.58,172.62,170.38,169.27,165.02,164.46,162.24,158.47,163.88,171.10,174.15,178.69,180.46,182.61,184.01,185.77,191.21,202.12,259.31,293.83,285.67,225.04,186.89,167.13,186.27,219.64,255.73,299.01,271.37,229.94,218.99,246.90,201.97,136.03,109.65,105.91,83.57,76.64,111.06,121.91
169.93,204.61,165.04,131.19,118.12,96.95,57.54,32.65,34.31,43.92,72.29,115.25,114.96,118.31,137.73,155.85,140.34,193.55,201.65,177.66,116.34,45.53,46.64,61.33,86.85,120.00,122.77,131.75,145.47,169.19,228.78,210.49,157.17,152.34,171.30,198.59,243.45,196.98,161.38,154.22,219.59,222.13,189.55,161.09,144.92,171.76,201.08,187.30,228.66,184.59,245.03,195.32,134.35,133.03,140.64,149.60,157.38,169.25,168.67,201.61,210.21,216.38,211.60,210.48,222.43,222.17,240.06,288.11,297.10,336.09,316.70,339.45,361.58,403.59,408.62,470.45,530.69,661.01,662.67,603.90,675.24,782.90,1008.74,1148.41,1134.88,893.57,883.37,762.42,749.01,779.79,799.43,690.26,660.46,706.82,623.24,487.84,458.22,388.44,400.59,424.55,463.18,480.46,575.36,686.63,733.21,962.08,1132.81,966.97,892.39,1146.33,1061.70,1129.31,1284.64,1410.04,1607.43,1549.50,1333.40,1185.81,1005.16,910.65,832.17,775.09,721.57,963.45,1102.48,849.93,790.13,943.23,1162.15,1438.69,1567.49,1547.35,1652.94,1667.16,1803.20,1651.92,1510.12,1341.39,1075.18,843.60,818.71,761.84,670.92,677.14,728.94,807.71,683.41,813.50,838.42,912.16,1095.85,992.01,786.72,643.37,641.06,525.38,544.61,516.22,467.97,465.49,451.72,433.82,413.98,423.72,451.77,389.16,348.08,358.66,339.74,326.09,325.59,354.08,397.93,392.30,362.58,413.67,434.39,369.76,395.81,403.23,360.64,424.86,432.20,370.92,371.91,377.68,326.00,283.91,283.87,276.33,259.45,257.02,254.75,253.70,250.87,248.21,243.66,238.99,233.80,229.71,226.45,222.78,219.50,215.37,212.41,209.83,207.31,203.87,200.05,196.82,193.74,191.50,189.51,188.41,188.80,185.10,179.61,176.69,174.07,173.06,168.10,165.47,162.13,160.00,161.91,169.02,173.61,176.88,179.72,181.85,184.41,189.77,194.00,205.20,247.59,274.47,284.99,272.41,207.64,208.46,171.63,192.64,225.77,214.98,214.70,197.03,176.44,215.30,236.31,161.89,143.83,126.85,79.52,66.91,103.05,131.31
143.76,178.86,156.82,126.14,108.83,93.79,86.80,47.20,32.54,37.49,75.17,94.91,82.58,90.26,121.15,111.60,148.08,197.45,207.10,136.19,117.30,45.19,50.00,63.75,98.71,152.30,173.80,177.06,167.79,188.22,238.85,238.41,170.72,168.02,174.91,202.48,235.60,173.71,188.48,177.97,219.47,229.95,242.13,201.76,149.72,165.66,194.68,218.05,225.99,201.76,284.48,224.44,164.30,182.84,155.13,155.68,196.14,196.65,184.20,178.25,212.05,215.26,220.60,214.79,240.15,254.13,240.85,249.84,268.94,315.86,346.15,355.77,413.19,408.88,459.65,491.56,449.75,479.98,532.17,590.45,650.11,760.23,929.74,1093.50,1210.41,1118.06,1018.04,934.92,926.10,935.37,889.73,810.88,714.84,594.64,626.58,475.92,386.94,395.77,552.16,554.02,630.49,603.21,548.06,615.39,783.78,911.90,1173.36,1115.55,956.16,1137.21,1244.99,1295.63,1447.01,1604.15,1633.88,1568.04,1371.24,1214.67,1138.12,1071.77,1008.24,856.61,695.72,928.50,956.01,741.74,898.00,1168.89,1241.67,1229.98,1251.27,1282.45,1457.43,1705.53,1745.77,1472.32,1263.59,1077.39,889.65,928.52,1044.22,826.97,769.62,829.03,652.88,687.94,738.16,932.93,913.07,908.38,904.48,996.94,995.18,795.89,809.88,662.62,599.61,598.80,518.35,655.66,620.33,539.61,577.80,471.39,522.91,557.89,419.04,415.56,442.68,393.81,408.50,389.03,452.80,434.12,384.40,403.31,435.62,414.83,470.07,468.49,395.49,442.63,448.57,389.59,338.22,320.51,303.00,299.27,291.20,267.47,262.73,260.11,259.13,256.48,253.40,249.53,244.95,240.20,235.56,231.76,228.13,224.65,220.66,217.20,213.86,211.06,208.73,205.64,202.16,200.93,200.66,198.00,194.26,194.09,191.79,186.48,180.40,179.85,177.50,174.72,170.86,166.26,163.54,161.61,160.57,166.94,171.42,174.57,180.64,180.64,184.78,193.01,193.75,195.35,257.75,292.10,288.34,262.01,251.50,266.04,170.85,162.90,177.99,162.30,136.49,126.11,105.10,157.56,172.52,127.38,115.78,102.68,73.34,79.35,122.13,118.19
129.95,146.24,165.65,141.26,111.12,86.84,97.93,76.91,31.09,32.64,69.16,76.68,76.53,78.42,98.05,118.45,143.16,180.39,174.33,147.85,93.58,45.90,52.48,70.69,103.68,128.31,153.91,186.78,209.46,202.12,247.44,241.41,189.29,201.21,202.59,213.88,231.47,187.12,232.22,199.47,239.07,272.26,234.33,182.44,161.01,189.22,207.51,199.61,208.05,216.20,253.05,228.07,174.13,186.72,185.98,160.13,183.56,208.13,210.82,186.56,195.64,214.29,234.97,223.64,230.40,245.05,262.51,245.84,270.33,321.38,342.73,390.50,388.32,406.00,435.36,407.37,449.07,536.98,702.45,725.53,722.82,818.94,920.44,1077.71,1187.66,1048.45,1020.40,1045.27,900.09,802.59,900.49,881.28,720.06,559.91,477.62,421.44,386.90,450.43,572.67,698.30,792.58,757.75,640.86,702.58,773.79,990.39,1201.81,1267.49,1137.41,1125.57,1352.77,1479.20,1647.09,1571.34,1424.10,1480.94,1489.91,1457.85,1302.47,1158.70,997.30,821.86,683.92,828.84,813.21,770.62,1026.36,1105.07,991.51,961.94,1006.55,1114.79,1315.46,1538.18,1671.96,1434.79,1155.60,995.01,1062.09,1230.48,1093.01,850.00,1033.43,923.01,646.54,668.06,601.75,691.29,680.89,641.20,765.97,799.00,990.94,993.76,964.33,777.78,813.02,746.78,532.89,706.44,726.83,702.96,663.38,543.37,507.53,607.58,475.03,501.87,551.51,414.01,445.81,419.08,535.66,456.03,412.81,443.82,497.82,485.56,439.07,417.55,442.23,394.71,422.18,411.79,368.25,366.12,330.43,352.86,290.69,268.79,264.92,263.67,262.02,258.85,255.26,251.10,246.70,241.66,236.92,232.63,229.24,225.63,222.53,219.15,215.83,213.07,210.30,208.62,209.69,209.33,204.75,200.67,198.58,195.75,191.41,186.81,182.77,182.46,180.72,175.12,173.30,168.41,165.14,162.65,161.32,163.63,168.13,171.60,176.26,182.45,186.51,193.96,190.75,187.97,223.69,274.84,301.81,284.30,244.93,264.34,184.39,141.99,161.19,164.07,142.46,117.57,103.53,92.01,95.77,89.68,122.00,106.48,63.40,74.15,80.71,75.67
109.46,119.78,157.46,142.43,117.44,105.17,91.51,49.13,34.21,31.47,53.77,57.00,75.22,89.92,106.33,129.69,140.50,159.11,137.66,90.87,55.48,44.79,82.88,130.34,140.95,111.97,122.66,151.03,194.21,168.29,226.90,239.19,221.22,193.25,181.08,187.55,240.11,221.95,267.09,214.58,277.91,254.66,246.96,198.64,190.23,196.26,209.52,177.93,189.50,229.20,274.65,228.91,183.13,188.51,200.52,177.31,205.53,195.49,216.60,210.03,204.77,202.32,211.96,238.22,233.57,241.46,251.39,259.03,265.72,287.38,299.85,317.04,328.76,341.87,360.84,400.54,506.02,612.47,804.81,852.41,910.67,911.80,1020.33,1145.56,1080.79,906.07,827.37,912.15,775.89,640.09,820.60,909.72,727.47,605.90,472.35,387.45,399.65,558.28,638.28,677.51,774.42,832.65,739.70,836.00,954.73,1110.59,1275.41,1339.45,1371.65,1287.37,1387.66,1639.77,1586.96,1455.80,1239.23,1259.03,1350.20,1380.16,1251.48,1190.48,1012.22,899.68,719.26,778.32,711.17,849.43,951.72,951.55,841.64,996.26,1185.73,1330.90,1520.56,1714.84,1753.15,1457.09,1235.42,1293.08,1335.79,1399.13,1168.60,995.43,1126.66,921.67,668.61,744.50,743.77,674.94,637.43,620.72,591.58,793.97,943.05,803.36,927.95,1055.96,1030.27,770.85,584.36,667.09,908.25,902.20,778.71,730.45,585.19,663.54,540.24,527.99,490.75,418.87,490.95,500.79,543.46,538.80,500.07,517.70,460.91,472.74,457.94,393.22,436.35,390.63,391.33,471.28,407.13,385.33,381.47,333.04,278.98,270.26,268.99,267.38,263.89,260.36,257.00,252.41,247.90,242.90,238.69,233.72,230.24,227.28,224.29,220.31,219.21,214.79,217.66,220.72,217.00,212.17,208.53,204.27,202.33,198.15,192.76,189.07,186.43,185.16,182.28,180.06,173.59,170.34,166.73,163.90,162.27,163.94,166.41,170.56,173.44,181.11,186.41,195.74,179.74,189.88,244.10,283.01,299.48,257.29,214.38,196.83,202.91,141.58,138.93,152.24,121.47,107.39,103.16,95.38,84.56,72.05,64.74,106.90,66.50,60.23,66.92,87.53
92.91,124.93,149.03,158.60,138.55,114.46,79.64,53.18,47.88,31.58,38.28,64.41,84.18,140.38,160.77,148.26,164.46,146.51,97.56,62.65,38.45,41.97,88.81,129.24,175.97,194.70,154.69,139.07,182.46,148.88,210.69,183.05,188.03,158.56,155.47,176.62,212.53,209.44,287.04,258.77,304.65,235.55,230.96,225.00,220.50,198.86,187.10,176.50,212.09,233.37,269.88,236.81,198.90,199.84,211.59,177.52,205.71,217.47,246.55,259.17,230.34,235.04,223.46,233.45,247.00,248.82,259.51,277.02,275.96,291.14,310.54,348.36,399.05,401.27,429.31,447.97,453.74,550.61,637.68,771.33,972.33,1102.82,1156.36,1118.49,893.00,809.40,693.65,792.33,661.30,581.32,706.89,785.29,759.97,608.88,466.24,385.02,421.75,586.03,745.50,617.77,632.87,734.19,604.85,763.20,937.13,1096.32,1080.73,1126.03,1326.28,1457.85,1576.38,1637.53,1449.37,1315.11,1144.99,1045.10,1234.97,1185.42,1113.68,1271.39,1205.83,1005.35,742.76,624.98,724.18,711.25,750.48,792.12,836.97,915.55,1065.84,1322.32,1584.92,1827.68,1748.76,1532.11,1516.71,1507.18,1573.40,1414.81,1211.59,1092.87,918.97,757.51,698.81,982.26,968.61,919.16,929.85,852.07,628.08,602.45,747.25,754.15,862.66,984.50,1073.91,785.14,717.31,857.32,1051.38,961.92,753.27,791.48,791.71,802.82,692.89,666.06,566.07,491.25,564.71,615.95,602.05,530.77,522.74,515.80,458.69,416.90,458.13,382.49,369.88,366.53,380.63,431.60,385.88,339.78,335.45,323.87,278.20,274.46,273.06,269.40,265.76,262.05,259.01,254.40,249.16,243.07,238.97,235.60,232.54,229.36,229.59,231.00,224.42,220.50,223.46,224.88,219.00,214.45,209.63,209.46,204.57,199.30,197.00,193.44,190.26,187.23,182.59,180.58,175.35,173.82,168.41,165.38,163.69,163.63,167.19,169.60,171.99,177.70,184.04,190.09,165.38,184.78,250.41,277.90,308.80,303.08,258.30,194.55,169.06,157.74,128.33,146.19,113.81,104.27,83.57,91.09,101.19,106.27,84.78,57.84,68.42,39.26,55.48,87.73
81.19,128.05,175.34,175.20,151.07,120.16,118.31,109.38,64.43,30.86,37.27,69.64,107.73,152.19,172.36,178.57,187.91,165.73,124.41,47.85,37.06,43.52,100.44,136.22,139.63,172.81,218.79,184.47,186.91,131.87,151.11,130.93,141.21,151.56,193.23,220.46,194.38,191.63,253.60,243.48,279.86,218.80,214.25,233.50,234.26,205.91,167.16,181.63,221.30,219.12,279.68,254.14,217.60,212.50,231.48,188.18,205.69,245.92,314.60,308.59,283.10,271.32,252.78,252.17,260.60,260.90,263.02,285.72,286.80,335.16,343.86,336.32,344.98,386.88,427.72,490.97,544.59,551.40,605.58,722.15,905.33,1093.35,1167.29,1031.29,867.16,807.16,657.17,618.76,544.62,527.14,542.33,617.86,661.28,628.58,456.26,385.00,448.12,566.59,626.77,520.83,500.95,557.67,544.93,702.38,737.72,873.67,840.56,969.01,1218.74,1459.48,1530.68,1453.45,1389.93,1152.41,1024.03,902.70,1094.19,948.91,988.21,1233.35,1236.39,999.36,745.98,626.94,832.24,913.33,968.12,1046.28,1069.17,1093.44,1150.43,1215.64,1517.70,1719.36,1627.83,1614.80,1716.60,1687.06,1517.59,1147.16,963.52,859.72,794.71,805.99,717.56,992.12,1185.03,1186.19,1127.87,865.74,675.10,597.54,599.57,691.13,806.43,996.77,1097.08,945.18,960.49,1101.03,986.08,869.21,668.98,693.72,742.92,819.04,665.81,587.53,597.16,594.60,597.21,513.27,581.44,504.61,431.70,454.77,495.50,397.63,436.24,449.32,406.27,358.81,343.21,375.02,440.01,387.76,295.20,285.85,281.12,278.72,274.91,270.03,266.61,262.55,258.50,253.91,249.22,245.13,242.53,246.05,247.19,245.00,241.99,235.21,232.16,225.10,227.68,228.73,223.11,217.46,214.47,209.16,205.76,205.26,200.50,195.26,191.33,185.64,183.86,181.73,178.45,175.36,171.48,169.40,165.73,164.50,165.92,168.34,172.13,178.98,186.73,166.28,166.38,184.22,211.99,260.24,290.33,251.71,231.04,229.28,161.81,136.53,127.95,124.63,99.11,89.52,82.00,66.66,77.13,81.14,71.50,66.34,44.94,34.89,80.14,95.74
81.77,110.31,176.11,152.83,121.51,136.44,107.96,91.19,92.01,33.96,34.87,54.34,88.31,113.16,133.47,174.69,200.83,151.12,102.06,49.75,35.74,38.95,91.14,130.47,126.85,156.49,194.25,190.25,167.60,112.90,153.48,148.45,167.12,180.82,231.85,255.74,192.34,165.65,217.97,226.42,262.22,225.08,183.30,215.07,213.06,189.84,154.77,188.18,183.94,207.25,260.54,267.59,212.52,191.16,221.61,203.26,209.42,250.50,263.36,332.17,356.45,376.53,339.31,258.35,222.69,222.00,250.08,266.73,304.90,304.79,282.66,307.43,346.85,407.71,460.21,509.50,533.00,664.25,787.98,934.02,1005.09,933.57,994.66,1142.30,1026.30,886.27,674.13,632.13,632.32,535.10,527.60,460.13,464.84,485.54,422.69,385.00,402.64,413.76,455.08,438.95,480.02,569.04,518.46,561.10,608.61,680.62,831.79,1086.22,1324.04,1382.76,1316.09,1274.04,1406.74,1285.73,1077.59,840.73,903.94,797.45,1034.23,1195.98,1199.20,1003.74,711.25,627.18,848.20,1073.35,1117.63,1240.78,1312.20,1356.33,1434.62,1365.61,1605.20,1646.97,1435.41,1382.36,1498.44,1447.18,1530.44,1279.20,1108.99,1061.97,1028.02,901.12,711.55,813.83,1049.80,1316.66,1142.38,918.85,908.87,710.67,562.58,783.48,968.56,902.94,830.15,1014.85,1183.30,1029.61,788.07,645.76,603.99,578.18,617.64,818.91,728.95,546.29,509.31,615.17,506.42,465.07,526.94,573.52,479.60,403.64,419.50,392.64,406.85,441.80,421.79,353.60,323.40,368.52,407.25,311.81,292.41,288.13,285.19,288.00,280.49,275.83,274.74,274.84,266.96,254.87,255.62,264.26,267.31,263.44,254.78,250.30,243.33,242.24,235.81,229.94,234.31,231.44,225.81,221.28,216.76,214.40,213.22,206.37,199.62,195.56,191.88,187.89,185.05,182.75,179.93,177.02,174.71,171.50,167.69,165.27,165.95,167.94,172.05,180.84,197.00,178.67,154.00,170.75,180.73,219.03,240.84,183.90,156.69,148.65,132.47,117.75,129.46,118.51,83.31,85.98,81.13,69.51,49.43,59.22,65.30,51.98,33.67,30.34,28.82,42.55
105.53,75.12,128.21,140.29,94.02,97.53,95.41,64.57,73.77,42.23,33.36,47.38,73.51,112.42,139.43,177.62,198.60,137.22,110.95,60.09,35.84,45.61,73.91,96.13,130.08,159.65,137.59,204.86,137.91,115.29,144.75,150.15,189.85,184.14,221.87,230.56,167.22,148.90,181.63,227.89,248.11,218.33,166.52,202.86,196.14,183.07,152.35,172.42,196.68,250.31,225.88,273.87,222.06,180.26,191.80,182.15,183.00,206.21,266.75,300.01,301.56,375.38,274.74,228.91,257.75,249.04,253.57,246.89,255.11,279.64,313.57,370.82,360.25,395.99,378.37,457.16,482.29,608.92,709.70,893.80,962.88,774.60,896.87,1055.19,1110.31,900.25,744.47,750.03,664.24,624.86,664.61,483.36,474.03,464.52,441.67,392.01,422.38,492.12,429.38,513.47,627.53,744.63,636.49,744.55,791.20,830.92,931.64,1174.03,1210.64,1236.27,1119.12,1148.01,1324.49,1338.03,1110.42,886.43,753.11,709.46,929.33,985.60,1075.81,903.97,642.76,677.38,782.85,847.98,846.91,968.73,1202.36,1402.84,1476.96,1568.38,1685.87,1438.52,1268.65,1138.35,1242.07,1191.77,1389.18,1486.58,1127.79,923.31,832.28,758.84,809.26,1008.68,1042.25,1340.61,1282.20,1118.26,1044.84,809.12,553.94,725.04,840.28,730.37,818.35,1025.89,1166.99,957.06,852.34,725.15,618.98,514.93,648.62,720.13,758.40,583.36,467.43,589.48,613.23,450.44,541.05,565.85,494.25,496.58,403.52,389.24,362.08,369.80,326.09,314.63,308.52,305.58,303.38,298.45,295.13,292.78,292.17,312.01,310.69,310.47,305.17,291.55,267.69,263.22,284.32,279.20,274.56,268.85,259.37,251.69,248.18,244.52,238.50,234.48,238.07,233.62,229.73,224.03,223.19,217.51,212.43,204.62,202.71,199.03,193.28,188.03,185.35,183.56,181.38,177.89,174.31,172.15,169.25,166.56,166.64,168.59,172.65,185.88,208.58,172.38,139.44,156.35,197.49,220.04,193.07,166.87,149.38,134.72,114.90,120.48,134.76,95.73,79.53,71.08,63.86,61.18,93.60,111.06,95.00,66.53,48.39,43.72,30.59,24.50
128.58,72.66,77.30,127.90,73.36,52.78,48.36,38.53,35.56,33.13,30.86,62.62,91.68,103.52,112.69,143.09,179.86,135.98,102.95,47.57,36.55,52.34,99.47,111.00,144.04,121.18,141.57,171.52,128.64,136.56,166.58,155.10,159.38,174.06,206.13,237.52,196.27,140.41,167.82,241.91,223.08,219.56,163.62,164.80,190.30,161.90,150.37,179.52,208.80,212.57,215.53,263.73,248.59,191.50,162.80,162.34,182.74,202.88,221.22,279.17,275.72,289.08,209.66,274.00,347.27,393.59,338.30,319.89,278.79,294.94,311.88,380.89,440.72,501.22,407.84,439.56,469.34,536.35,718.42,797.75,705.15,630.87,754.91,912.01,1045.31,882.10,880.46,822.20,728.22,743.48,670.90,609.44,612.25,532.24,459.18,391.99,405.91,514.52,504.88,510.68,661.17,847.41,762.62,857.30,957.21,1105.77,1130.23,1193.58,1075.88,1001.40,980.54,1177.87,1261.71,1312.82,1141.66,981.69,840.54,661.29,769.06,809.48,873.35,828.07,612.38,630.98,660.95,747.79,779.43,837.94,939.89,1097.71,1286.27,1589.30,1655.86,1384.03,1115.15,986.10,988.76,1111.11,1357.61,1501.11,1158.14,1148.57,1034.59,894.99,791.14,1043.76,1334.12,1419.31,1122.38,926.39,914.00,821.70,549.28,686.50,673.97,639.90,806.91,972.85,1160.13,1141.43,1011.92,919.72,752.04,539.04,513.52,668.74,709.05,597.09,453.83,541.53,564.97,472.85,419.47,437.63,387.81,377.13,350.83,341.80,331.54,326.76,323.99,319.10,313.82,313.85,310.37,307.21,302.38,298.78,317.66,327.75,317.63,307.87,293.88,287.45,268.75,272.48,290.78,286.12,278.88,269.59,260.73,256.09,250.50,244.97,242.40,239.55,241.99,238.69,232.75,227.39,220.50,212.58,208.61,206.32,202.78,197.68,193.65,189.71,186.74,184.12,181.93,179.58,176.64,173.42,170.07,167.92,167.65,169.13,173.69,197.54,212.44,156.58,139.00,185.70,190.89,180.50,153.60,138.24,130.77,122.09,106.72,121.36,137.50,110.61,95.29,81.17,64.32,75.59,111.08,98.38,81.08,59.25,81.31,71.87,47.04,33.59
136.50,108.86,54.00,88.85,42.46,25.34,25.60,26.36,29.58,30.43,37.66,85.89,135.59,143.37,144.15,156.87,194.96,136.94,99.41,45.68,33.29,47.82,93.38,134.15,136.16,100.83,135.81,116.28,97.45,128.03,123.44,145.48,149.38,198.85,189.04,200.61,210.98,134.62,153.42,202.49,239.90,228.92,180.04,140.25,159.59,136.04,165.44,188.29,183.08,180.55,215.85,245.22,260.39,199.48,165.10,163.75,181.50,208.83,225.30,237.04,217.81,197.89,241.51,335.71,379.03,494.50,461.70,395.93,307.36,296.75,321.59,379.41,464.06,508.11,477.85,545.92,533.43,652.08,731.61,664.36,511.64,602.10,742.69,890.34,1038.71,1060.69,1035.85,947.31,852.98,818.26,769.33,591.00,543.90,466.30,337.39,455.92,507.26,544.28,607.91,545.62,656.69,826.78,757.18,769.59,859.24,990.93,1043.47,1112.00,959.76,846.79,1017.61,1078.63,1082.77,1196.16,1173.37,1091.78,900.75,672.03,602.90,658.49,632.84,599.84,643.79,772.82,751.90,1009.90,984.80,1069.94,1081.92,1247.75,1465.69,1585.63,1568.47,1307.71,1086.88,893.10,952.76,1164.11,1443.85,1625.58,1388.13,1353.18,1197.84,976.65,831.19,1091.54,1359.34,1337.54,1102.74,997.43,746.43,747.27,667.54,539.76,537.65,682.55,713.25,942.69,960.88,964.47,1059.13,949.41,698.84,602.66,472.40,511.41,556.99,641.42,504.25,422.03,398.85,365.82,356.41,354.74,346.59,343.52,342.63,341.61,342.44,338.00,340.80,347.05,334.23,332.87,344.69,358.39,320.71,327.59,336.99,332.97,325.10,312.99,307.80,285.63,276.74,285.45,295.73,290.26,283.00,271.37,263.29,257.85,253.77,251.44,244.80,242.72,246.25,241.53,234.96,228.13,217.09,214.59,210.88,206.25,202.60,197.77,193.99,190.65,187.87,185.32,182.55,180.16,178.05,174.62,171.80,169.34,168.86,169.51,176.06,198.35,193.39,142.94,139.28,191.59,217.65,192.54,161.29,146.93,138.63,135.58,107.15,115.38,141.43,127.07,108.49,94.75,69.54,92.85,109.50,94.69,112.52,69.30,88.37,80.28,67.13,50.42
116.27,91.06,68.53,35.05,25.89,26.98,27.75,33.61,45.37,62.61,54.65,95.53,117.28,145.41,154.96,187.70,192.99,166.62,136.64,58.72,31.68,43.16,80.52,101.85,109.59,83.44,94.83,75.09,111.43,161.88,163.56,150.81,172.86,169.59,171.05,207.08,182.29,126.47,157.14,163.77,198.02,191.55,178.76,133.63,125.86,131.39,155.59,169.76,160.18,184.64,195.69,215.66,233.92,210.07,185.98,148.34,160.00,180.64,204.51,187.00,181.75,230.25,281.68,305.74,387.01,483.56,524.14,380.40,296.48,277.51,300.78,393.19,481.42,394.94,497.65,625.06,642.95,692.50,554.59,541.39,491.06,673.55,631.63,697.56,792.02,992.12,1031.35,1002.64,906.89,793.18,722.11,532.88,442.23,350.79,367.32,553.00,637.54,619.87,706.85,606.86,628.84,787.90,631.90,597.35,674.88,765.11,976.14,1019.34,873.84,757.28,911.28,1028.06,912.74,950.86,973.75,1043.86,958.40,758.14,570.09,541.63,629.00,739.65,808.57,906.39,834.52,1078.78,1194.89,1287.78,1302.14,1492.81,1519.07,1320.07,1272.53,1318.63,1108.41,863.01,1044.82,1230.95,1388.67,1653.19,1578.41,1287.81,1004.92,881.09,918.51,1171.57,1236.52,1077.84,926.07,857.37,794.76,664.19,601.12,610.47,517.39,687.19,854.17,986.96,794.59,741.42,798.40,964.50,874.81,687.10,576.28,497.51,448.18,489.64,389.13,372.26,393.96,377.18,378.48,384.87,380.81,385.90,380.77,370.57,381.43,416.41,456.02,468.57,422.66,366.85,389.30,358.96,347.65,360.56,351.93,341.61,325.80,309.14,295.78,283.80,297.10,296.86,300.28,293.64,281.66,271.64,267.48,263.04,258.40,253.74,248.08,247.60,249.97,243.55,234.81,223.71,220.05,216.26,211.28,207.61,203.88,200.50,196.14,192.07,188.93,186.39,183.75,181.42,177.94,174.57,171.43,169.74,169.97,171.56,177.33,190.71,193.06,135.19,133.20,167.50,214.98,168.84,141.87,125.86,116.15,107.66,98.63,105.37,121.74,131.66,106.10,79.79,77.12,131.41,116.85,140.78,103.95,102.02,98.51,95.22,88.11,65.03
68.07,37.49,33.65,26.19,26.56,28.05,34.81,50.68,94.82,121.47,95.13,72.93,87.33,100.08,119.71,144.35,177.31,139.87,122.14,90.06,34.52,85.89,86.19,53.52,69.98,63.92,78.08,111.55,127.83,171.11,184.25,173.74,169.41,150.22,162.41,181.66,194.12,130.78,144.58,127.03,129.90,147.30,146.32,113.89,140.61,177.69,143.27,146.36,186.92,197.70,204.49,199.63,175.77,177.73,156.57,153.78,169.61,200.73,176.59,163.81,203.58,245.77,297.69,359.40,375.67,406.93,432.19,356.63,293.08,248.58,267.48,334.77,361.84,398.52,481.06,556.18,621.58,569.75,476.06,404.08,451.65,505.39,589.65,685.98,866.14,1052.15,927.81,858.76,798.39,671.59,691.95,580.54,452.28,318.75,429.53,609.84,720.60,738.50,664.40,538.39,534.85,659.52,678.70,519.49,590.44,763.71,846.24,871.93,753.28,695.84,886.74,1015.95,886.40,723.05,772.54,974.40,1091.35,904.40,657.67,512.23,575.73,748.34,884.11,999.00,958.83,1106.29,1244.42,1468.23,1505.80,1547.16,1475.02,1167.14,1031.14,1129.19,964.50,815.40,1095.03,1347.82,1511.59,1676.79,1649.85,1323.40,1143.21,1151.47,1223.92,1163.91,990.42,813.28,806.93,636.71,588.74,572.50,556.84,581.30,509.72,686.07,801.78,938.27,778.89,599.32,668.81,800.64,796.80,805.38,758.37,619.57,486.11,392.03,411.60,475.37,493.94,429.27,432.47,475.87,495.38,454.54,491.36,403.24,435.95,547.86,610.22,552.41,424.49,415.99,466.25,380.66,398.93,367.39,347.78,330.86,321.34,313.15,293.66,306.39,319.08,302.21,303.34,293.00,281.22,276.18,270.55,266.35,261.59,258.91,253.49,251.25,244.63,238.02,229.38,224.39,219.91,214.89,211.27,208.02,204.74,201.63,197.25,193.83,190.02,187.31,184.47,181.38,178.89,175.60,172.95,170.56,170.57,172.88,177.25,188.50,161.47,115.16,141.29,215.20,258.31,182.23,147.70,138.54,123.52,120.65,102.12,93.66,118.09,138.97,106.11,90.09,88.87,134.66,124.75,147.09,98.38,99.93,112.95,112.73,115.32,82.72
24.73,22.69,23.85,24.69,25.93,30.23,49.93,62.04,115.47,166.91,150.81,108.59,94.17,105.16,106.78,108.46,112.94,111.30,86.00,48.78,32.88,57.45,55.36,96.45,93.36,115.66,123.29,108.99,129.05,177.89,215.97,173.75,134.00,155.06,182.63,149.42,178.76,120.25,102.94,96.00,104.36,122.50,118.71,122.74,150.55,205.51,178.34,153.31,159.00,175.83,196.67,199.88,160.63,136.37,153.27,202.80,183.52,185.44,148.78,182.13,221.09,245.22,287.68,304.67,316.16,353.91,349.12,375.57,320.38,238.07,253.84,326.86,343.34,382.13,453.90,526.06,645.23,545.51,441.89,389.63,497.68,577.84,682.68,734.81,797.09,915.37,928.01,766.73,650.71,567.86,596.05,603.45,468.81,345.59,361.02,466.40,555.48,686.07,777.32,622.04,476.09,517.94,639.89,468.50,578.25,760.05,633.44,679.07,631.60,820.77,960.41,796.32,743.41,595.12,595.26,786.63,925.37,813.00,538.32,639.28,670.49,602.59,752.70,868.21,839.26,909.36,1184.21,1437.21,1335.64,1278.24,1355.14,1286.29,1024.93,880.11,962.53,795.72,999.33,1136.32,1494.18,1482.65,1504.24,1439.38,1373.74,1271.53,1080.38,903.77,774.67,678.61,625.43,690.16,663.92,704.68,749.84,740.25,557.67,537.85,741.18,734.02,826.65,610.98,536.61,549.27,581.11,727.27,651.71,507.34,437.70,452.27,556.96,622.61,495.30,467.70,508.82,451.62,552.47,560.84,500.54,421.47,513.74,551.07,691.15,557.72,438.57,512.59,469.14,409.85,410.83,394.59,362.02,376.61,323.76,307.79,308.13,355.32,342.93,309.27,303.68,290.14,285.78,278.78,274.57,269.65,262.92,251.29,246.16,241.60,238.69,234.93,229.45,224.66,220.82,216.46,212.79,209.21,206.24,203.06,199.06,194.92,190.94,187.06,184.99,182.44,179.20,175.88,173.87,172.10,170.22,170.36,166.95,175.06,149.35,119.28,162.18,252.15,278.92,188.17,142.02,123.97,119.79,111.31,100.83,90.13,97.39,120.47,116.38,117.58,130.89,145.71,154.41,137.96,133.97,127.28,116.95,126.27,112.57,89.66
21.87,22.81,23.80,24.81,26.93,39.59,61.53,79.80,112.87,149.20,148.10,139.86,134.45,116.88,81.63,75.34,74.38,70.50,54.82,34.93,53.34,64.64,99.50,150.87,127.69,162.60,130.88,154.66,139.03,165.02,180.46,207.33,146.18,139.45,161.35,128.28,159.59,101.72,134.74,115.29,146.40,164.09,183.08,147.44,165.56,186.94,206.68,186.00,167.12,184.80,206.77,163.98,162.85,125.50,175.48,208.91,197.61,159.53,154.85,185.81,191.80,215.42,249.18,281.22,318.87,307.60,352.90,366.24,311.85,232.16,231.69,311.94,411.41,503.43,585.57,608.26,573.41,535.64,478.53,358.97,407.19,482.82,544.40,675.53,613.58,723.21,869.60,758.25,634.46,529.61,482.50,536.43,439.10,320.75,457.08,508.19,566.97,659.15,773.84,724.27,569.87,422.70,513.27,437.43,573.95,602.48,521.23,588.72,762.10,946.00,938.90,688.38,475.87,463.60,461.97,525.86,660.03,639.26,519.96,687.61,854.41,697.41,632.87,720.13,786.19,928.22,1169.67,1251.75,1082.33,997.84,1194.30,1384.31,1095.46,838.46,847.02,741.59,908.47,1169.18,1423.73,1296.92,1251.62,1501.66,1344.38,1054.87,855.49,765.22,701.54,797.70,783.69,938.02,707.47,825.05,983.63,916.30,713.36,534.06,576.53,584.03,645.87,511.80,506.93,510.37,471.42,551.04,487.57,411.24,456.29,627.93,738.20,610.10,480.01,605.96,565.98,548.43,477.12,586.80,466.16,513.03,586.30,666.09,598.68,609.59,535.62,568.51,489.34,461.43,491.88,415.32,406.87,370.00,332.79,332.90,314.93,352.12,338.49,312.84,297.85,291.94,287.78,284.25,277.77,264.75,256.05,251.75,248.35,242.74,238.25,234.50,230.59,225.64,222.05,217.74,213.99,210.44,208.14,204.79,200.67,196.26,191.91,187.34,184.32,182.21,179.83,176.36,174.13,170.15,151.62,137.03,129.95,125.08,127.26,109.84,134.50,188.84,180.72,140.38,125.31,112.33,105.02,116.81,106.02,91.55,84.88,85.39,97.32,122.54,162.67,120.12,129.35,129.31,140.25,111.97,125.75,127.44,83.52,88.03
22.94,25.93,28.96,34.75,41.53,62.19,86.25,90.54,85.97,112.37,152.43,116.94,114.19,101.53,67.98,56.77,49.94,37.77,31.45,29.60,56.75,113.43,83.80,127.77,129.88,173.38,175.44,148.52,174.23,167.64,155.41,186.66,159.02,123.47,114.61,93.77,99.38,106.25,146.88,138.48,144.51,179.74,203.41,170.28,203.76,175.67,218.99,181.02,168.07,195.55,195.75,150.16,132.52,121.78,157.47,169.35,198.91,136.65,172.26,194.57,189.57,191.95,221.95,243.23,260.26,295.36,328.95,393.42,344.28,260.56,207.30,296.79,394.85,475.16,606.34,615.83,576.16,436.90,359.01,401.74,487.67,570.86,583.08,516.15,582.07,729.63,830.30,731.59,667.28,583.76,478.86,448.00,347.17,320.73,494.59,676.13,716.06,751.83,654.87,644.28,617.64,408.87,397.11,470.40,443.06,499.02,582.45,767.41,904.70,797.83,710.20,579.21,467.61,647.10,655.73,573.76,509.00,501.39,586.35,732.64,924.60,804.46,649.30,667.27,749.75,854.50,1066.93,1031.73,834.53,982.76,1229.56,1254.20,1161.88,914.41,713.54,811.29,1030.28,1278.15,1338.55,1135.45,1075.43,1367.83,1247.57,988.99,1044.12,900.60,785.35,1026.47,987.22,1021.73,826.47,921.90,1132.31,931.83,824.42,602.58,544.90,489.71,485.66,505.05,671.92,666.16,570.94,436.96,419.00,513.49,608.79,809.06,780.48,554.51,554.47,726.24,686.81,546.91,542.67,566.24,518.72,606.81,612.99,533.26,513.61,549.43,505.57,467.99,482.38,558.35,467.09,407.78,378.03,353.84,340.33,335.73,370.70,385.16,355.92,312.54,300.90,297.39,290.72,278.34,268.63,263.05,257.63,251.84,247.04,243.50,239.97,236.08,231.25,227.81,223.52,218.81,214.91,212.40,208.64,205.68,201.86,197.18,192.16,187.77,185.20,183.93,181.90,176.63,157.37,138.31,134.77,127.34,121.77,120.99,114.93,116.51,114.73,214.49,160.18,109.34,98.45,90.69,91.64,103.20,107.33,107.24,97.99,84.12,80.55,101.39,133.59,107.38,121.75,112.86,139.19,125.59,141.63,96.16,95.23,61.96
34.09,38.44,56.95,63.44,75.87,63.26,67.86,93.66,94.07,104.35,122.62,93.92,71.67,68.58,51.30,35.86,30.95,32.74,29.72,29.10,48.23,76.02,94.20,98.93,94.69,110.23,130.69,140.15,157.60,138.08,147.50,149.21,174.20,95.23,87.30,103.70,98.96,157.79,174.31,170.05,142.74,167.66,189.68,206.23,207.59,231.65,206.90,198.84,184.76,188.86,193.73,150.10,110.68,147.05,177.84,192.22,164.10,130.80,173.24,177.55,192.59,223.82,247.19,257.97,276.06,268.75,345.47,397.27,370.04,274.64,197.07,276.14,310.72,459.39,519.44,525.40,487.28,377.98,382.20,428.17,506.72,617.64,539.36,512.90,643.26,754.47,850.41,774.00,706.19,633.28,607.47,564.99,378.79,315.12,497.62,679.06,782.53,854.44,654.83,500.80,509.48,375.29,503.18,653.17,589.56,591.00,747.41,812.64,847.00,605.48,462.13,428.07,538.43,788.54,895.14,824.75,668.94,560.86,728.13,872.89,1001.51,926.66,776.01,666.30,764.91,848.09,1014.83,1002.96,757.59,859.69,1008.95,989.28,959.61,748.00,724.15,888.20,1138.72,1339.98,1194.63,957.61,1024.52,1305.44,1294.81,1258.46,1248.39,994.87,864.32,1090.88,1267.68,1211.85,1048.03,1122.13,1191.96,942.86,775.44,760.91,694.67,567.61,587.37,714.72,839.58,874.85,732.25,496.37,586.95,718.58,811.42,927.60,763.39,641.46,726.50,796.73,639.89,602.45,681.11,697.16,700.81,705.81,620.16,553.18,486.20,444.96,474.43,408.92,459.96,496.63,487.36,466.26,416.64,377.26,379.56,367.85,426.70,464.80,364.06,317.13,305.92,291.27,278.74,274.43,268.40,263.55,258.99,253.69,250.03,246.01,242.60,238.95,236.05,232.27,227.25,222.93,219.64,215.35,211.31,208.38,206.16,199.70,193.73,191.05,188.28,184.19,176.68,155.43,139.04,138.94,133.59,124.58,127.11,130.09,125.79,106.73,104.59,108.00,99.68,88.49,87.92,83.11,81.44,83.15,86.06,90.49,98.56,99.59,89.99,77.38,87.04,97.01,104.67,106.67,144.98,136.17,123.57,95.72,89.33,73.19
63.59,61.31,76.10,76.00,96.81,112.66,86.15,104.75,120.09,128.15,101.50,65.75,54.83,39.73,31.20,25.69,27.24,30.19,28.96,28.77,97.31,133.92,89.99,99.34,117.93,120.08,140.03,146.94,155.62,125.29,121.12,105.52,82.07,84.28,126.83,154.59,140.11,169.89,208.54,191.26,160.14,191.09,214.82,214.28,219.91,279.58,236.76,220.72,191.16,198.68,180.61,144.86,109.21,151.85,176.50,159.42,125.52,152.87,185.38,206.72,208.28,184.77,196.27,209.15,240.87,310.69,383.09,332.15,378.99,266.59,188.02,234.06,292.63,408.57,409.97,429.00,350.73,335.45,511.44,462.71,621.77,575.65,503.57,507.54,704.49,831.47,788.09,844.17,724.23,654.52,633.13,539.54,398.38,295.44,416.98,585.20,808.26,860.06,636.07,463.66,447.23,367.96,547.32,690.58,644.54,740.26,814.96,805.63,826.77,751.54,503.56,490.39,755.87,869.34,1073.49,989.89,833.39,623.13,630.86,683.99,900.41,1017.91,828.44,715.96,777.50,887.29,983.51,1057.97,858.98,666.58,713.10,758.57,681.06,697.43,904.51,1095.03,1260.82,1209.45,1120.25,881.45,940.42,1213.52,1463.97,1553.66,1449.13,1226.32,1058.96,1199.37,1251.72,1160.01,1186.91,1241.51,1194.36,994.34,926.29,852.59,728.24,732.50,682.23,909.89,1053.36,881.95,607.59,533.86,697.55,919.43,872.47,780.05,842.08,835.81,760.39,702.07,555.31,489.30,635.36,591.73,665.54,616.71,677.60,588.42,594.25,477.61,408.87,378.26,445.03,419.70,449.29,422.58,375.01,340.85,333.92,394.13,357.55,424.38,379.37,304.71,285.31,280.54,267.61,252.03,239.34,230.41,229.50,235.21,242.56,244.32,243.78,241.13,237.54,232.91,226.77,221.36,218.21,216.60,215.32,211.54,206.09,200.86,198.69,195.66,192.46,171.93,151.34,140.99,137.08,135.06,134.65,129.41,124.66,118.22,110.87,101.78,92.92,87.31,85.50,82.35,81.81,81.24,78.42,77.21,75.91,80.25,83.70,84.91,93.25,95.29,74.22,69.16,80.89,104.07,117.48,133.34,109.01,91.08,91.71,60.09
76.63,79.84,93.88,110.48,126.08,138.42,138.11,114.91,101.39,91.96,65.62,52.44,30.92,26.78,25.48,22.51,25.46,25.01,31.43,73.84,57.89,120.86,128.36,127.43,131.10,155.80,144.87,136.00,124.08,115.03,95.35,87.08,94.88,124.84,140.09,167.86,170.47,154.62,195.60,173.43,138.00,153.02,172.84,192.47,196.84,255.10,249.61,216.86,205.66,215.72,152.43,122.87,123.55,180.35,145.69,117.41,137.59,195.52,180.25,172.45,174.39,154.81,172.57,226.60,246.46,313.34,310.09,302.25,321.85,201.68,179.73,212.56,254.56,347.21,315.63,289.15,335.91,444.88,504.21,574.34,678.13,539.90,412.86,569.94,610.25,602.50,653.17,763.14,724.24,563.17,504.08,384.75,313.92,307.06,424.66,621.38,816.10,794.13,559.96,416.19,410.06,358.14,423.92,577.74,517.40,644.25,751.51,584.17,645.15,699.70,447.51,475.89,710.72,1005.16,1217.29,1168.96,955.00,755.06,844.08,699.08,831.90,1019.99,963.95,844.38,786.10,852.27,889.71,885.40,886.68,612.69,673.50,668.76,764.82,887.62,1037.64,1261.63,1128.67,989.80,961.13,829.88,1019.11,1306.93,1544.12,1577.72,1622.28,1377.18,1213.13,1146.49,1042.92,881.08,925.32,980.95,1087.95,1159.17,1133.26,982.10,953.88,924.52,855.14,1040.65,1089.08,798.13,609.74,721.78,784.22,876.06,706.75,619.72,729.13,679.47,636.23,614.71,535.75,437.17,619.41,533.86,536.67,565.92,572.13,514.86,508.60,525.28,499.80,428.97,359.14,401.80,397.65,374.39,406.20,363.54,317.58,387.44,358.93,341.37,343.95,285.39,257.08,237.96,222.38,217.20,214.60,214.11,212.83,208.43,204.99,204.37,202.34,199.41,196.38,190.58,184.45,179.54,175.80,174.30,178.56,188.20,197.02,202.16,200.59,192.42,168.00,152.50,144.13,139.50,134.72,136.25,136.40,122.34,114.59,110.80,104.91,95.35,86.66,84.51,82.84,79.79,78.00,77.00,74.50,75.39,73.24,70.70,75.77,78.10,77.19,91.06,93.74,76.79,67.55,105.80,118.96,132.28,144.36,104.37,80.93,72.90
70.36,84.01,103.62,113.92,122.07,121.57,124.98,79.37,81.34,59.99,48.22,30.93,23.07,22.91,19.97,20.49,27.50,54.98,88.50,109.59,89.83,77.04,94.90,120.45,165.45,202.82,180.75,157.75,138.74,138.40,101.31,72.10,113.36,132.69,162.13,176.47,182.93,176.06,166.42,140.09,128.99,153.65,153.37,159.48,166.93,224.84,268.85,239.66,218.85,197.54,164.49,103.69,134.28,108.15,116.91,153.19,174.71,166.43,159.83,147.56,152.00,161.18,171.12,196.02,259.25,268.40,233.73,291.37,224.98,161.28,177.14,198.61,206.81,220.76,235.72,300.20,379.26,516.24,528.07,502.76,542.08,571.98,445.14,443.90,465.51,497.47,577.42,710.23,756.36,531.28,414.63,318.79,394.12,451.40,504.99,646.76,861.71,736.99,568.52,447.96,347.65,320.72,433.32,583.53,463.19,533.01,683.53,507.33,510.36,515.26,427.11,587.03,829.03,1068.00,1228.63,1137.93,1094.33,999.26,967.89,805.72,786.55,972.54,1117.16,953.88,884.48,714.20,692.12,711.39,778.92,582.63,748.63,914.59,1027.92,1150.07,1199.85,1168.01,971.65,815.13,739.91,776.28,969.41,1164.50,1433.28,1383.05,1539.35,1323.10,1122.03,942.09,916.97,948.32,833.88,759.66,892.22,1033.52,1123.56,1076.48,1153.78,1107.71,1013.70,1108.49,1118.89,834.45,789.67,920.89,916.06,737.51,567.11,489.19,588.27,487.95,458.23,380.70,367.29,376.00,536.62,561.87,483.84,492.49,520.95,509.22,456.90,455.67,463.19,446.03,395.84,351.11,344.27,374.16,437.84,431.49,362.16,302.74,309.17,289.64,289.70,251.43,227.33,218.41,210.59,207.45,205.41,200.77,195.76,190.41,187.52,190.35,194.68,194.26,189.66,185.60,180.30,177.35,173.36,169.29,165.71,161.76,157.84,159.72,169.89,163.62,157.74,150.70,142.96,130.12,123.58,121.43,118.82,112.95,110.07,104.13,94.21,89.16,86.81,86.26,84.41,80.77,77.87,75.38,71.41,69.47,69.82,69.50,65.95,67.91,74.21,75.32,92.08,89.21,67.17,77.34,117.35,128.92,104.13,88.40,105.03,80.96
80.07,95.95,99.25,108.68,105.39,104.03,89.82,58.05,53.23,48.05,28.31,20.01,19.89,20.36,20.80,25.17,62.65,98.43,126.67,129.53,119.64,93.35,133.09,151.58,168.72,206.97,247.58,179.84,140.94,111.85,83.67,70.31,108.97,153.04,163.69,182.64,200.61,158.85,123.14,147.28,166.85,181.70,161.42,185.49,193.01,180.88,237.99,229.06,201.13,150.06,134.34,92.66,101.85,123.52,167.55,169.38,181.86,140.09,124.00,120.86,130.75,145.59,158.73,182.10,190.31,204.28,250.76,287.13,161.03,166.10,183.80,194.08,192.21,217.09,305.44,390.21,473.38,481.50,387.04,473.53,446.83,536.20,427.60,436.26,537.69,624.93,616.80,753.54,797.39,588.67,484.67,357.05,316.76,447.17,563.05,725.54,805.66,637.91,478.69,422.79,308.60,387.74,509.35,496.73,438.74,444.54,483.37,432.46,425.76,362.47,452.69,588.00,821.69,965.87,1027.10,898.27,1047.39,1222.71,1079.13,873.12,827.50,981.57,1175.65,1145.07,1045.80,851.52,671.57,607.44,547.33,603.44,845.72,1064.85,1074.17,1206.32,1118.18,916.90,829.21,705.73,869.21,821.36,819.65,1067.81,1314.76,1256.33,1454.05,1428.73,1152.78,1124.36,1212.39,1227.26,1105.43,908.58,718.28,897.06,907.75,845.82,1063.85,951.32,814.60,875.32,1046.52,1042.80,1010.08,1126.25,901.06,662.82,429.02,438.85,397.31,406.65,420.30,461.99,374.69,340.03,350.27,353.75,373.89,415.84,471.96,452.24,396.55,402.99,363.00,428.34,437.91,383.19,338.71,333.50,340.56,334.08,334.32,314.08,308.58,253.21,238.32,214.12,205.47,202.68,205.95,206.40,202.76,198.55,194.66,189.93,184.90,180.33,177.15,177.37,180.11,180.21,177.98,174.67,170.45,168.16,164.09,159.75,155.61,150.63,145.24,144.39,149.69,137.17,126.95,124.45,123.90,120.93,118.31,114.55,109.37,94.41,90.35,89.93,95.03,106.35,92.43,84.87,83.72,82.60,79.72,78.72,67.27,65.87,65.14,63.51,65.98,71.78,76.23,90.16,68.34,74.94,101.98,142.39,139.51,124.30,114.47,75.01
76.30,90.71,102.71,108.87,84.75,98.58,55.08,44.38,27.05,20.47,18.75,18.69,19.63,19.58,31.66,72.98,92.14,111.46,168.19,176.46,129.02,105.63,131.93,166.75,205.31,260.44,229.59,172.50,133.19,129.40,86.35,68.67,135.32,140.70,163.93,183.83,179.33,147.43,110.88,177.99,195.00,190.70,175.65,191.25,225.32,209.70,202.46,191.99,165.18,132.60,98.40,109.93,137.66,167.76,134.24,143.77,147.31,125.77,109.10,147.04,165.61,148.49,158.43,154.24,177.38,234.64,194.79,174.12,147.29,184.80,199.35,238.19,220.89,253.67,337.01,444.56,427.80,386.35,336.54,477.99,391.09,470.02,370.97,465.00,531.23,636.94,755.35,868.87,795.12,578.47,430.95,361.20,316.29,444.16,570.04,705.66,666.50,567.72,460.05,358.47,280.18,396.87,406.23,340.87,340.15,398.02,328.07,329.28,378.50,483.20,689.87,794.31,873.36,815.72,745.67,703.82,953.12,1225.03,1094.70,971.31,1034.19,999.17,1191.86,1271.58,1143.42,950.28,778.57,610.65,522.15,676.30,902.95,920.93,807.48,942.96,932.42,706.96,665.16,797.78,1052.69,1081.59,854.73,1035.41,1106.27,1239.18,1516.56,1573.32,1413.23,1386.98,1296.51,1146.07,967.17,824.84,706.58,671.04,690.74,760.05,918.63,882.71,647.38,771.32,1004.67,992.90,1104.00,1114.79,878.17,641.27,424.74,593.28,552.36,657.79,661.72,607.03,422.79,531.03,412.86,416.85,371.64,327.91,326.27,368.16,385.57,307.54,272.84,281.67,318.64,395.25,380.81,345.22,323.54,319.51,298.62,278.55,251.62,214.84,199.68,184.50,184.67,186.08,189.86,185.78,166.13,175.72,185.69,187.02,182.70,178.89,174.59,170.02,167.86,165.27,164.10,169.10,170.76,166.58,162.78,158.47,152.78,147.58,143.58,137.36,133.42,131.40,128.26,125.43,125.03,121.74,119.49,113.76,99.38,94.43,91.94,98.88,133.12,193.05,146.51,102.11,93.00,95.33,105.94,92.16,72.38,61.14,62.48,61.66,60.70,63.06,69.49,86.75,71.66,77.27,116.49,139.28,140.79,113.20,96.17,72.97
90.80,89.61,85.01,98.84,78.06,81.05,46.59,22.10,17.88,16.32,17.36,17.97,25.53,64.48,94.86,101.14,111.96,147.31,160.74,163.07,163.75,134.41,151.72,164.88,205.01,199.92,210.04,180.17,144.66,114.01,83.59,63.62,124.58,174.56,186.73,189.02,154.66,123.55,96.75,122.75,134.34,139.24,153.00,190.03,247.71,260.59,224.37,191.68,182.99,154.59,95.91,88.27,83.50,105.77,118.76,138.43,114.05,99.06,128.58,152.57,139.30,146.55,150.71,140.73,175.03,177.94,134.87,137.14,160.16,220.24,246.80,241.30,214.37,247.45,296.11,367.50,345.81,318.84,272.57,347.76,321.72,318.97,328.84,426.86,519.62,683.41,779.06,842.33,666.84,577.20,401.14,275.80,399.90,526.03,643.88,787.50,670.38,539.43,435.46,447.14,321.88,272.04,267.73,342.48,289.26,297.53,375.11,468.31,580.39,643.35,661.44,721.39,684.41,640.74,562.94,707.16,992.18,1126.95,1234.77,1156.06,1255.54,1181.78,1297.28,1191.51,1025.36,896.85,833.26,639.58,541.22,758.34,855.27,672.45,593.06,632.36,728.98,662.78,807.11,797.09,1104.27,1248.32,990.69,893.81,983.09,1306.68,1580.11,1548.59,1301.37,1141.17,999.01,866.62,778.05,837.76,845.65,800.45,761.24,640.29,754.77,795.44,557.22,729.45,964.82,751.31,921.48,1073.01,836.58,603.92,432.44,632.02,680.16,822.93,669.20,523.12,493.65,688.00,520.27,546.69,510.67,447.54,370.33,307.24,298.21,334.54,388.74,345.81,264.03,284.75,314.40,336.25,341.22,336.23,301.77,239.97,213.89,240.88,289.80,258.84,242.61,227.70,222.24,210.12,166.08,155.57,160.39,173.04,177.51,176.00,171.69,167.58,164.59,160.53,157.07,155.81,165.06,164.39,161.02,157.01,151.46,144.57,140.50,139.04,137.09,134.34,129.80,129.00,126.42,122.75,113.33,100.78,98.06,95.27,95.72,120.90,156.21,192.90,152.30,131.65,112.26,117.28,122.40,107.44,76.32,60.18,56.40,59.11,58.11,56.34,65.41,82.56,67.41,57.85,96.48,116.72,117.62,94.61,84.78,88.17
83.81,69.48,61.93,69.06,66.27,46.41,23.31,16.30,15.61,16.93,15.46,25.95,76.87,94.24,95.06,101.81,123.67,148.82,146.90,144.44,146.31,163.64,140.78,147.79,177.25,169.85,201.47,147.91,120.83,100.93,63.91,65.46,119.03,154.75,140.82,169.27,157.22,102.88,144.31,153.03,154.35,142.63,161.58,196.47,240.20,251.60,259.78,222.39,219.79,175.08,138.51,118.13,92.53,72.08,84.28,109.83,87.55,130.76,136.48,121.37,127.36,143.45,128.49,148.86,145.57,121.45,134.20,157.28,182.38,205.45,252.05,221.53,189.88,196.17,220.09,262.98,284.31,251.81,341.59,301.55,313.72,377.80,411.78,408.53,494.90,558.39,680.81,759.10,555.17,433.58,366.91,275.74,441.76,564.51,574.27,707.26,679.53,630.16,515.12,413.68,355.55,267.81,295.55,469.20,417.33,470.14,520.38,630.91,646.62,628.82,501.21,476.53,502.56,506.23,654.91,825.76,838.74,1021.30,1191.55,1128.51,1277.80,1289.69,1311.19,1117.32,909.17,755.21,650.70,584.37,501.67,659.36,590.37,557.09,697.30,740.26,643.78,793.36,1046.56,923.01,968.89,1281.79,1076.13,1092.92,1049.33,1325.26,1645.93,1575.61,1326.96,1123.11,943.58,944.49,980.51,1063.91,960.90,1093.81,1026.10,745.92,621.23,601.83,617.44,625.45,783.85,622.06,795.91,954.38,750.82,514.48,490.86,743.20,809.08,947.67,787.92,664.72,523.34,749.66,654.52,715.71,608.91,570.80,536.17,467.38,440.35,490.22,482.35,388.70,374.42,358.46,269.23,245.88,271.89,279.48,246.25,244.54,321.56,342.02,297.69,265.62,242.30,247.21,247.71,226.69,207.96,175.73,148.20,150.25,165.38,171.93,169.79,166.20,161.34,158.04,154.34,150.79,151.84,162.49,159.07,153.97,149.76,147.29,143.73,140.61,136.51,130.02,123.47,118.69,115.28,108.31,103.57,100.75,98.71,96.31,105.87,158.67,150.88,171.09,156.30,145.54,106.33,98.62,100.15,111.17,79.28,60.80,52.59,50.83,53.46,54.64,63.94,80.93,66.41,50.40,83.88,126.14,116.54,96.98,90.63,72.83
77.82,40.46,60.61,62.77,24.49,15.73,15.17,14.85,14.95,22.22,39.51,54.14,77.23,81.41,97.22,113.00,141.95,120.62,143.19,140.72,137.84,129.94,113.28,144.31,158.05,142.78,160.30,135.48,100.75,64.62,57.36,87.28,106.83,112.86,149.41,166.68,128.70,88.10,118.70,113.46,136.07,162.46,158.16,173.81,204.40,257.35,288.99,271.73,262.35,244.87,217.51,169.93,134.51,89.67,66.12,68.81,85.36,77.85,81.12,87.11,94.28,99.59,115.63,121.25,122.21,126.48,151.50,188.59,215.48,251.43,238.56,171.75,174.80,187.90,207.92,219.98,261.09,314.88,397.61,398.81,426.11,385.29,557.48,493.41,567.08,641.69,672.41,810.42,672.15,483.43,345.50,265.45,385.24,365.53,447.79,549.09,697.64,664.55,531.02,473.16,407.19,293.69,266.17,473.12,554.17,556.70,577.62,525.56,502.69,418.62,409.98,381.18,531.90,494.92,528.45,625.70,774.38,873.57,967.18,941.39,1087.59,1041.85,1205.34,1233.30,1108.93,933.76,792.06,645.16,484.78,517.67,552.01,735.27,790.61,990.92,913.80,940.56,1212.25,1134.33,978.93,1244.10,1233.29,1325.84,1266.42,1336.84,1641.80,1614.20,1493.28,1408.07,1280.80,1293.75,1214.22,1222.98,1130.78,1195.17,1065.61,831.27,641.20,764.42,754.35,546.69,573.50,491.29,674.33,676.97,564.72,452.91,627.79,769.36,964.07,895.86,773.87,606.49,602.62,847.88,728.08,645.61,514.63,420.71,347.90,334.62,333.33,321.72,383.82,462.97,516.78,506.20,392.89,318.45,265.32,226.31,277.64,323.21,341.30,386.35,317.77,264.47,279.93,272.88,275.44,253.69,255.63,201.34,154.43,140.01,139.70,151.92,156.12,162.25,159.37,156.41,152.41,148.06,144.77,155.62,156.41,151.25,149.47,144.54,137.46,132.57,125.76,120.95,116.86,113.27,109.81,106.49,104.14,101.16,99.14,98.55,124.51,165.38,154.07,139.55,190.07,166.32,111.28,85.98,84.81,105.06,81.27,61.19,54.23,45.73,51.12,53.39,55.99,74.38,55.03,50.00,84.41,112.61,107.47,92.91,78.42,69.24
72.96,34.52,64.28,36.21,14.62,13.18,13.05,20.30,34.53,40.75,55.21,86.14,88.50,93.11,106.05,120.76,120.71,112.08,123.27,125.72,128.01,95.82,123.70,120.11,147.33,114.04,121.21,126.66,65.78,53.15,73.49,107.92,129.21,126.90,163.37,137.78,105.62,99.53,160.16,160.94,149.21,138.70,187.03,189.96,233.49,257.56,319.01,347.49,338.33,285.96,246.53,191.60,144.66,125.04,64.64,67.57,73.97,80.69,98.18,102.63,104.95,102.02,103.37,105.82,116.83,155.15,167.94,177.49,208.33,228.72,194.70,160.62,191.63,206.56,245.85,312.32,377.43,441.99,494.97,525.69,496.01,397.50,534.23,643.79,657.29,589.21,559.19,749.97,760.20,567.89,509.55,338.44,269.53,337.81,491.65,559.29,653.24,740.61,625.44,576.00,450.44,308.79,238.28,348.50,491.78,401.32,439.71,388.14,349.21,382.01,439.31,531.18,573.54,686.37,505.25,563.74,663.50,662.92,730.74,770.18,881.23,914.69,1125.32,1233.68,1144.26,994.69,801.98,670.79,486.63,476.76,666.40,907.45,949.12,1125.82,1191.11,1121.48,1247.56,1317.76,1095.22,1225.12,1453.41,1540.68,1566.98,1555.76,1677.17,1461.24,1235.90,1284.83,1406.64,1308.75,1379.99,1453.32,1347.65,1141.14,903.16,678.79,718.03,841.44,759.72,715.18,569.57,558.75,475.13,472.44,447.37,535.27,753.69,941.37,1045.30,797.66,647.48,669.03,788.34,879.08,677.94,537.75,439.92,349.84,400.76,497.59,504.31,395.68,338.99,307.06,352.81,378.52,281.76,258.15,258.95,340.81,427.10,347.71,393.40,446.77,324.04,270.09,301.59,303.06,305.43,293.44,293.70,236.32,204.03,162.59,144.84,146.32,131.67,146.95,155.13,153.72,149.93,146.03,142.33,140.62,142.92,139.27,135.31,133.17,130.80,128.17,125.56,120.80,116.34,112.60,109.70,106.20,102.58,99.78,97.96,95.34,100.19,126.30,114.41,121.88,157.03,141.12,105.66,86.22,77.33,101.49,88.06,62.38,54.09,43.45,47.46,51.80,52.25,56.89,43.46,53.62,79.40,115.59,102.33,76.94,63.08,74.52
59.00,27.63,26.20,14.62,12.98,11.71,14.53,30.30,29.85,37.17,59.40,83.34,81.57,79.35,76.85,85.67,86.89,105.89,126.95,137.07,109.70,87.03,123.72,109.87,119.12,98.03,96.16,78.04,48.67,67.60,88.44,99.36,119.47,133.26,138.42,101.39,75.97,108.36,120.54,142.06,147.41,164.00,206.08,238.61,284.57,298.47,317.23,378.09,364.80,300.73,299.00,250.11,184.63,127.55,73.01,61.28,91.61,98.69,103.31,117.45,140.26,141.29,134.58,123.03,129.79,141.22,148.22,170.89,192.64,187.08,158.37,169.32,197.63,218.33,252.40,334.13,446.56,534.36,568.31,644.68,578.79,501.35,572.38,678.22,636.23,447.10,527.56,684.17,768.26,764.60,646.87,447.94,276.10,299.86,488.42,673.57,730.60,714.13,580.58,459.38,390.44,329.34,248.47,270.19,443.21,345.79,307.18,296.34,391.89,491.32,640.10,691.43,755.07,757.64,658.67,596.25,626.28,675.67,726.05,711.36,732.42,887.06,1058.10,1189.08,1020.75,830.00,708.17,516.27,521.71,484.68,620.74,831.28,1088.86,1227.66,1334.93,1361.94,1413.34,1371.73,1285.94,1390.57,1569.86,1717.11,1545.98,1467.05,1470.50,1443.90,1119.15,1046.88,1214.55,1060.29,1238.21,1413.91,1138.99,911.78,773.02,787.31,981.62,746.90,534.47,641.32,544.48,494.07,638.04,701.96,515.79,646.13,722.61,962.43,1056.61,908.17,898.33,950.78,922.73,869.26,677.98,568.57,393.18,438.39,462.04,564.73,563.83,478.73,488.40,437.05,362.12,294.21,299.36,336.51,447.30,467.93,396.25,401.88,408.67,368.36,310.84,283.09,260.24,246.81,252.88,266.84,256.94,220.34,196.50,181.44,169.59,162.70,134.58,129.70,141.17,148.84,147.11,143.86,140.48,137.18,137.72,137.46,134.84,132.57,130.25,127.84,125.19,120.03,116.58,113.27,109.34,105.78,101.94,99.15,96.81,93.67,89.49,88.30,90.94,90.57,106.50,149.83,125.61,91.20,72.67,69.96,82.43,69.25,54.69,45.60,42.05,48.50,49.39,46.85,38.94,60.33,101.15,107.95,89.85,77.88,57.03,45.40
40.82,18.91,13.17,12.54,11.50,10.25,27.57,40.29,44.54,46.08,48.82,59.20,72.38,77.73,87.25,93.81,100.45,119.92,109.03,117.05,122.76,72.55,92.74,115.65,110.98,73.38,59.03,48.80,48.68,90.45,102.37,110.64,114.98,131.14,99.71,74.00,109.14,136.59,150.75,130.19,146.47,176.26,218.26,285.76,272.92,254.92,301.50,326.13,378.45,350.03,314.04,276.53,199.98,138.15,105.09,56.02,86.99,99.14,109.20,139.13,128.31,152.25,142.32,144.71,152.12,152.25,160.81,180.21,173.47,161.94,149.53,183.70,192.04,204.53,232.83,312.65,434.38,530.26,541.91,544.07,633.14,662.50,692.05,639.59,546.62,424.57,471.97,672.77,620.04,610.40,678.39,512.15,303.66,349.53,546.37,753.58,818.02,659.97,556.53,471.96,464.95,482.31,304.52,228.76,272.14,298.06,336.29,395.77,469.68,644.29,682.82,699.75,893.46,928.06,823.32,699.35,845.93,934.93,934.42,884.25,877.65,954.63,1172.20,1154.39,926.07,726.69,592.01,477.41,609.34,471.63,611.52,827.13,1089.67,1054.09,1076.65,1236.88,1379.74,1454.64,1503.27,1591.72,1511.59,1487.22,1384.98,1139.64,1203.63,1326.26,1107.65,893.05,967.20,964.62,1224.96,1346.57,1015.74,1009.67,1014.23,1007.53,1042.11,742.28,582.27,615.87,545.32,681.55,791.75,651.70,605.35,872.64,905.29,981.39,841.74,985.33,927.29,858.36,781.68,635.80,539.45,381.34,402.10,565.14,526.25,585.66,634.51,600.87,576.77,558.67,388.79,405.05,428.15,439.93,482.37,402.14,337.77,331.86,391.21,381.62,326.68,279.15,234.89,211.62,216.23,206.53,230.59,186.96,173.00,165.98,163.39,161.90,149.29,124.91,122.53,131.52,142.90,140.98,137.96,135.99,132.31,131.69,131.49,131.82,129.25,127.05,124.78,119.78,116.38,113.71,110.07,106.13,102.31,98.22,94.60,91.83,90.28,86.91,85.19,82.27,82.96,123.77,149.66,100.29,82.61,60.25,58.66,59.37,54.91,48.26,39.07,43.92,45.68,36.52,37.50,68.68,104.35,111.14,81.80,73.84,56.20,37.51
24.60,15.09,11.79,11.09,10.54,11.33,33.25,37.97,45.63,60.21,80.08,87.27,85.27,96.15,109.78,114.41,112.74,118.00,84.32,102.73,115.04,71.54,68.97,81.06,54.38,48.15,45.37,54.68,83.06,104.44,128.84,92.03,92.97,90.86,69.02,104.12,115.94,134.10,152.61,169.32,164.51,196.96,261.22,256.78,236.07,227.47,269.11,333.44,367.07,278.05,224.17,201.54,161.45,126.19,84.34,54.57,74.63,108.66,134.37,142.05,132.71,150.41,162.52,160.20,163.38,157.43,155.14,156.07,156.94,141.70,159.24,172.85,186.09,215.40,222.78,275.54,363.39,466.83,448.95,468.26,597.06,623.94,515.32,537.42,457.54,389.10,432.76,603.96,608.41,419.01,504.04,489.16,336.13,303.47,475.94,589.49,752.38,726.08,621.23,630.69,619.09,477.02,335.85,236.03,252.50,447.25,447.70,474.91,500.95,526.60,520.92,664.24,800.23,844.73,881.70,809.75,891.51,1053.43,1094.98,1013.72,1068.76,1114.12,1256.02,1213.83,991.44,783.75,555.07,472.84,552.20,470.18,622.86,868.02,992.35,822.81,839.03,1007.74,1243.97,1521.70,1570.56,1572.24,1344.46,1218.78,1163.89,965.84,949.15,1088.34,952.81,796.64,818.68,1046.33,1314.71,1477.72,1333.09,1222.83,1135.47,1139.75,1011.11,786.02,650.89,641.83,683.57,772.70,877.23,789.87,647.42,907.02,1060.37,794.04,628.72,741.48,782.84,626.46,654.81,501.25,410.25,461.55,461.32,597.42,703.89,714.22,681.98,481.63,412.92,389.71,376.99,536.36,555.42,494.26,459.87,421.31,379.83,296.66,367.02,353.00,305.43,277.21,246.41,220.99,173.32,152.99,156.82,160.20,156.13,148.89,149.16,148.40,146.03,142.53,121.16,115.45,132.43,137.10,130.79,124.09,126.47,128.04,127.25,125.99,126.40,125.81,124.61,119.75,115.96,113.95,110.63,106.03,102.99,98.83,96.10,96.54,94.53,89.67,85.36,81.15,77.11,85.95,131.24,116.14,80.11,65.56,58.40,54.31,46.94,56.66,61.32,37.28,32.61,30.60,42.22,60.04,91.81,77.42,65.62,57.88,71.38,49.45
16.50,13.28,10.44,10.32,10.06,19.27,23.88,31.16,48.31,74.78,84.96,88.32,99.32,106.71,115.52,115.35,116.34,115.18,93.47,70.70,84.81,58.30,36.41,37.25,38.49,44.91,64.83,81.69,99.60,120.55,116.11,82.51,66.67,62.31,84.27,115.23,118.97,144.55,165.86,174.36,164.17,192.86,247.91,209.93,189.25,207.06,245.40,291.56,315.39,254.53,200.26,173.62,159.28,185.10,97.31,54.87,87.25,141.69,165.81,152.24,146.47,152.25,155.26,136.33,137.54,141.68,143.98,145.76,139.29,136.13,166.74,174.91,189.00,211.91,201.97,241.20,332.46,388.03,355.92,398.34,524.94,486.25,370.83,428.22,421.99,389.04,364.45,539.99,595.80,391.27,322.44,289.73,379.40,277.27,326.46,438.21,612.40,778.93,693.59,755.90,646.07,548.01,427.79,286.13,241.67,350.15,431.31,347.71,364.50,430.83,592.92,744.98,663.47,616.41,701.89,752.99,882.31,1073.59,1057.52,1154.59,1100.97,980.66,1093.69,1156.09,1041.37,826.26,641.21,431.43,469.82,506.73,668.53,820.28,735.76,713.89,839.01,1030.65,1283.45,1295.69,1287.47,1527.58,1360.88,1239.40,1056.56,895.48,752.92,894.88,785.25,807.29,981.81,1110.42,1401.58,1560.70,1265.70,997.75,876.23,898.45,995.41,954.94,842.26,707.09,643.13,674.88,882.62,950.37,753.83,986.73,1007.15,823.80,631.32,590.14,730.14,494.76,435.82,406.26,506.47,566.33,475.81,612.13,705.04,557.95,511.42,452.03,595.22,507.99,471.32,443.81,395.53,359.85,332.52,311.79,305.09,296.34,266.54,331.26,315.45,234.91,175.84,173.79,163.85,161.92,169.80,146.53,138.88,134.04,130.95,129.45,123.95,121.54,116.83,113.33,117.04,120.29,107.06,106.51,102.49,121.53,125.20,122.54,119.90,117.12,117.60,116.14,114.03,112.08,108.60,105.42,104.37,103.61,119.28,131.05,126.88,103.05,84.35,80.22,77.69,73.61,95.77,123.50,88.89,67.41,79.30,66.97,63.56,46.62,67.08,63.39,38.38,27.33,34.75,48.69,86.86,66.64,57.31,36.00,31.21,21.30
